ncols         654
nrows         29
xllcorner     7.22416666667
yllcorner     55.035
cellsize      0.00083333333333333
NODATA_value  -9999
1195 1196 1197 1198 1198 1197 1200 1203 1204 1205 1205 1206 1206 1206 1206 1206 1206 1206 1203 1200 1198 1196 1194 1191 1190 1189 1186 1183 1182 1181 1181 1182 1183 1185 1186 1188 1187 1186 1181 1176 1177 1178 1181 1184 1182 1180 1179 1178 1178 1178 1179 1180 1180 1181 1180 1179 1179 1180 1181 1183 1182 1180 1181 1182 1183 1185 1186 1187 1189 1192 1195 1199 1206 1213 1220 1228 1235 1243 1247 1251 1251 1251 1250 1248 1249 1250 1251 1252 1252 1253 1253 1252 1253 1254 1255 1256 1256 1257 1257 1258 1257 1256 1256 1256 1256 1257 1257 1257 1257 1257 1257 1258 1258 1258 1258 1257 1257 1257 1257 1257 1257 1257 1257 1257 1257 1257 1257 1257 1257 1257 1260 1263 1265 1267 1267 1267 1267 1266 1266 1265 1268 1271 1273 1276 1277 1279 1281 1283 1284 1286 1287 1288 1290 1292 1296 1300 1302 1304 1306 1309 1311 1314 1316 1318 1320 1323 1324 1325 1326 1328 1329 1331 1334 1337 1339 1342 1342 1342 1343 1344 1346 1349 1355 1362 1371 1380 1388 1396 1396 1397 1395 1392 1391 1389 1389 1388 1388 1389 1389 1388 1391 1395 1404 1413 1413 1414 1409 1404 1397 1389 1390 1391 1397 1403 1404 1405 1402 1398 1395 1392 1397 1403 1398 1392 1382 1371 1361 1351 1342 1333 1327 1320 1319 1317 1317 1318 1320 1323 1324 1326 1329 1333 1335 1338 1338 1339 1339 1340 1340 1339 1339 1338 1337 1335 1331 1327 1323 1319 1315 1311 1307 1303 1298 1293 1291 1289 1288 1287 1286 1284 1283 1281 1279 1277 1275 1272 1271 1270 1270 1269 1269 1270 1270 1270 1270 1271 1271 1271 1271 1271 1271 1271 1271 1272 1272 1272 1273 1275 1275 1276 1277 1278 1278 1279 1279 1279 1279 1278 1278 1279 1279 1280 1280 1280 1280 1280 1280 1281 1281 1281 1282 1284 1286 1288 1289 1290 1291 1293 1296 1299 1300 1301 1302 1303 1305 1308 1307 1306 1305 1303 1300 1296 1294 1291 1289 1287 1283 1279 1277 1275 1275 1276 1276 1276 1276 1277 1277 1278 1282 1286 1289 1292 1292 1291 1291 1291 1290 1289 1289 1290 1293 1296 1301 1306 1305 1304 1303 1301 1302 1304 1305 1307 1308 1310 1311 1313 1316 1320 1321 1322 1322 1323 1324 1325 1324 1323 1322 1321 1319 1317 1314 1311 1304 1296 1287 1278 1273 1267 1261 1254 1249 1244 1244 1243 1244 1246 1250 1254 1257 1260 1262 1265 1269 1273 1278 1284 1287 1291 1295 1299 1304 1310 1315 1321 1329 1338 1350 1363 1373 1384 1388 1393 1397 1402 1402 1402 1398 1394 1396 1398 1400 1402 1399 1395 1393 1391 1382 1373 1357 1341 1327 1312 1310 1308 1308 1307 1310 1314 1312 1310 1297 1284 1271 1257 1249 1240 1235 1230 1228 1225 1224 1222 1221 1219 1217 1215 1208 1201 1194 1187 1183 1178 1174 1169 1167 1164 1164 1164 1164 1164 1165 1166 1170 1175 1180 1186 1191 1196 1202 1209 1214 1219 1221 1224 1226 1229 1228 1227 1223 1218 1222 1226 1236 1246 1260 1274 1286 1299 1306 1314 1316 1319 1320 1322 1322 1322 1320 1317 1321 1325 1324 1323 1320 1317 1317 1316 1315 1314 1311 1308 1303 1298 1290 1281 1283 1285 1286 1287 1286 1285 1286 1288 1290 1292 1293 1295 1295 1296 1299 1302 1308 1315 1323 1331 1339 1348 1355 1363 1365 1367 1370 1374 1371 1367 1367 1367 1372 1377 1382 1388 1389 1391 1390 1388 1388 1388 1385 1381 1377 1373 1374 1375 1380 1385 1387 1390 1390 1389 1392 1395 1399 1403 1406 1410 1411 1413 1417 1422 1424 1427 1427 1426 1419 1412 1390 1367 1361 1354 1354 1355 1355 1355 1351 1347 1346 1345 1340 1334 1331 1328 1327 1326 1325 1324 1326 1329 1339 1350 1356 1362 1368 1375 1379 1383
1180 1179 1179 1179 1179 1179 1179 1180 1181 1182 1183 1185 1185 1184 1185 1187 1190 1194 1195 1196 1194 1192 1191 1190 1188 1186 1184 1182 1180 1178 1177 1175 1175 1175 1176 1178 1178 1179 1176 1172 1172 1171 1173 1176 1175 1174 1172 1170 1170 1170 1170 1169 1171 1174 1174 1174 1175 1176 1176 1176 1175 1173 1172 1171 1172 1173 1174 1176 1179 1183 1190 1198 1207 1216 1225 1234 1241 1248 1254 1260 1261 1262 1259 1256 1256 1255 1256 1257 1257 1258 1258 1258 1258 1258 1258 1259 1259 1258 1258 1258 1258 1257 1257 1256 1256 1257 1257 1257 1257 1257 1257 1257 1257 1257 1257 1257 1257 1257 1257 1257 1257 1257 1257 1257 1257 1257 1257 1258 1259 1261 1262 1264 1265 1267 1266 1265 1265 1266 1266 1267 1268 1270 1272 1274 1277 1281 1285 1290 1290 1290 1292 1295 1298 1302 1305 1308 1308 1309 1311 1313 1315 1317 1320 1324 1327 1330 1332 1334 1334 1335 1336 1338 1341 1344 1345 1347 1347 1347 1349 1352 1355 1359 1367 1376 1385 1395 1399 1404 1401 1398 1395 1392 1391 1389 1389 1389 1389 1388 1388 1388 1392 1397 1398 1400 1400 1401 1398 1394 1391 1387 1394 1402 1406 1411 1409 1406 1402 1398 1400 1402 1397 1392 1382 1371 1360 1349 1343 1336 1330 1324 1322 1320 1320 1319 1320 1321 1323 1326 1328 1330 1334 1338 1341 1344 1345 1347 1349 1351 1352 1354 1352 1349 1345 1341 1338 1334 1329 1324 1319 1314 1309 1304 1301 1298 1297 1296 1295 1293 1292 1291 1291 1290 1289 1288 1286 1283 1282 1281 1281 1281 1279 1277 1277 1276 1277 1278 1278 1278 1278 1279 1279 1280 1281 1282 1283 1284 1285 1286 1286 1285 1285 1286 1286 1287 1287 1286 1285 1284 1284 1284 1284 1284 1284 1285 1286 1287 1287 1286 1286 1287 1290 1294 1297 1300 1299 1298 1299 1301 1302 1304 1305 1307 1307 1306 1307 1308 1308 1307 1306 1304 1302 1299 1298 1296 1294 1291 1288 1284 1281 1278 1278 1277 1277 1277 1278 1279 1280 1282 1288 1294 1298 1302 1300 1297 1297 1296 1296 1297 1297 1297 1300 1303 1304 1306 1305 1304 1304 1304 1307 1310 1313 1317 1317 1317 1321 1326 1328 1330 1330 1329 1331 1334 1335 1336 1335 1334 1336 1338 1337 1335 1333 1330 1323 1316 1303 1290 1281 1271 1263 1255 1250 1245 1243 1241 1241 1242 1244 1246 1249 1253 1257 1261 1264 1267 1271 1275 1279 1283 1287 1291 1297 1303 1308 1313 1319 1326 1335 1345 1355 1365 1375 1385 1386 1388 1387 1385 1384 1382 1384 1386 1391 1396 1398 1400 1399 1397 1388 1378 1360 1341 1331 1320 1320 1321 1324 1327 1326 1324 1316 1307 1299 1290 1279 1267 1255 1242 1231 1220 1216 1212 1211 1209 1209 1210 1206 1202 1194 1186 1180 1174 1171 1167 1166 1164 1164 1164 1164 1164 1164 1164 1169 1175 1180 1185 1193 1202 1210 1219 1230 1241 1250 1259 1264 1270 1268 1265 1257 1248 1240 1231 1231 1231 1239 1248 1260 1272 1287 1302 1312 1322 1328 1335 1338 1342 1340 1338 1337 1335 1334 1333 1331 1329 1322 1314 1310 1306 1305 1304 1303 1301 1298 1294 1291 1287 1284 1281 1281 1282 1285 1289 1295 1301 1301 1301 1303 1305 1304 1303 1303 1302 1305 1308 1315 1322 1328 1334 1340 1346 1348 1350 1353 1357 1362 1367 1370 1373 1380 1387 1394 1402 1404 1406 1404 1401 1398 1394 1387 1380 1376 1372 1373 1375 1383 1391 1392 1394 1394 1395 1401 1407 1414 1422 1427 1433 1433 1433 1433 1434 1434 1434 1428 1421 1417 1412 1410 1407 1393 1378 1372 1366 1366 1365 1362 1358 1359 1360 1352 1344 1336 1328 1326 1324 1325 1326 1333 1341 1356 1371 1372 1373 1377 1382 1388 1395
1171 1170 1170 1169 1168 1167 1166 1164 1166 1169 1170 1172 1172 1171 1173 1175 1177 1179 1181 1184 1184 1185 1185 1185 1185 1184 1183 1182 1181 1179 1178 1176 1173 1170 1169 1167 1167 1168 1168 1168 1168 1167 1168 1169 1169 1168 1167 1166 1166 1167 1167 1166 1166 1166 1167 1168 1168 1168 1168 1168 1167 1166 1166 1167 1170 1174 1176 1179 1185 1191 1198 1205 1214 1224 1231 1239 1246 1254 1260 1266 1268 1270 1269 1267 1268 1269 1271 1273 1272 1270 1268 1265 1263 1261 1260 1259 1259 1258 1258 1258 1258 1257 1257 1257 1257 1257 1257 1257 1257 1257 1257 1257 1257 1257 1257 1257 1257 1257 1257 1257 1257 1257 1257 1257 1257 1257 1257 1258 1260 1263 1264 1266 1267 1268 1268 1267 1267 1267 1267 1267 1268 1270 1272 1274 1275 1277 1279 1282 1285 1288 1294 1300 1303 1307 1309 1312 1315 1319 1320 1321 1323 1326 1331 1336 1339 1343 1342 1341 1340 1339 1341 1343 1344 1346 1347 1349 1351 1353 1358 1363 1369 1375 1382 1389 1395 1401 1401 1402 1402 1401 1401 1401 1398 1395 1393 1390 1389 1387 1392 1397 1400 1404 1401 1397 1398 1399 1397 1394 1394 1394 1399 1404 1404 1403 1403 1402 1404 1406 1402 1398 1387 1376 1365 1354 1347 1339 1335 1330 1327 1324 1323 1322 1323 1325 1326 1327 1328 1330 1333 1336 1340 1345 1349 1354 1357 1361 1365 1370 1371 1373 1370 1366 1360 1353 1347 1340 1334 1328 1321 1314 1312 1310 1309 1308 1306 1304 1302 1300 1299 1298 1298 1298 1297 1295 1294 1293 1293 1294 1293 1291 1290 1288 1287 1286 1285 1284 1284 1283 1283 1283 1284 1285 1287 1289 1290 1291 1291 1291 1291 1290 1290 1291 1291 1290 1290 1290 1290 1290 1289 1288 1288 1287 1287 1288 1289 1291 1291 1291 1293 1295 1297 1299 1302 1305 1306 1308 1309 1311 1312 1313 1313 1313 1313 1313 1313 1313 1313 1312 1310 1307 1305 1303 1302 1300 1298 1296 1292 1288 1286 1284 1284 1284 1284 1283 1283 1284 1284 1284 1286 1288 1291 1294 1293 1292 1292 1293 1294 1295 1296 1298 1299 1301 1301 1301 1301 1301 1303 1305 1307 1310 1311 1313 1315 1318 1322 1327 1326 1325 1328 1331 1335 1339 1339 1340 1342 1345 1345 1345 1343 1340 1338 1335 1329 1322 1312 1302 1293 1283 1272 1261 1254 1246 1244 1241 1241 1240 1241 1242 1243 1245 1249 1254 1258 1262 1264 1267 1271 1276 1280 1284 1289 1294 1299 1305 1310 1316 1323 1331 1340 1350 1360 1370 1374 1379 1379 1380 1380 1380 1380 1381 1385 1390 1391 1393 1392 1391 1379 1366 1353 1339 1334 1329 1329 1328 1327 1326 1317 1308 1300 1291 1287 1282 1274 1266 1251 1236 1224 1212 1207 1201 1199 1197 1195 1193 1189 1185 1180 1174 1171 1167 1166 1164 1164 1164 1164 1165 1166 1168 1172 1176 1182 1188 1195 1203 1211 1219 1232 1246 1261 1277 1282 1288 1294 1301 1302 1304 1292 1279 1265 1251 1244 1237 1244 1251 1262 1273 1286 1300 1312 1324 1333 1342 1349 1356 1357 1359 1356 1353 1349 1344 1339 1333 1328 1322 1313 1303 1297 1291 1290 1289 1288 1287 1285 1283 1282 1280 1282 1284 1289 1295 1300 1305 1306 1307 1308 1309 1309 1308 1306 1303 1304 1306 1308 1311 1314 1318 1321 1324 1328 1333 1342 1352 1359 1367 1373 1379 1383 1387 1391 1396 1397 1399 1396 1393 1388 1383 1379 1375 1374 1373 1375 1377 1385 1393 1398 1403 1405 1407 1408 1409 1416 1424 1431 1438 1441 1445 1442 1438 1434 1429 1429 1429 1420 1410 1405 1400 1395 1389 1378 1367 1363 1359 1359 1360 1359 1357 1357 1356 1348 1339 1335 1330 1332 1335 1346 1358 1371 1384 1385 1386 1386 1386 1392 1398
1174 1172 1171 1170 1167 1164 1164 1164 1164 1164 1164 1164 1164 1164 1164 1164 1166 1169 1170 1172 1172 1173 1173 1174 1175 1177 1176 1174 1174 1175 1175 1174 1172 1169 1168 1167 1166 1164 1165 1166 1166 1167 1166 1165 1165 1166 1166 1167 1167 1167 1166 1164 1164 1165 1165 1165 1165 1166 1165 1164 1164 1165 1169 1174 1179 1185 1186 1188 1197 1206 1214 1222 1229 1237 1245 1254 1262 1271 1273 1275 1275 1276 1278 1280 1283 1286 1287 1288 1286 1284 1276 1267 1264 1260 1259 1258 1258 1258 1258 1257 1257 1257 1257 1257 1257 1257 1257 1257 1257 1257 1257 1257 1257 1257 1259 1262 1262 1262 1261 1259 1259 1258 1258 1257 1258 1259 1259 1260 1262 1264 1264 1265 1266 1267 1267 1266 1267 1268 1268 1268 1270 1272 1272 1273 1274 1276 1278 1281 1285 1289 1294 1300 1304 1309 1314 1320 1323 1327 1327 1327 1333 1339 1346 1354 1352 1350 1347 1344 1343 1341 1342 1344 1345 1347 1350 1354 1359 1364 1367 1371 1379 1388 1391 1394 1396 1399 1399 1399 1400 1402 1404 1406 1405 1403 1398 1393 1394 1395 1401 1407 1404 1401 1400 1399 1402 1406 1401 1396 1394 1391 1391 1392 1392 1391 1393 1395 1398 1401 1395 1388 1377 1366 1356 1346 1341 1335 1332 1329 1327 1325 1325 1325 1328 1331 1332 1333 1333 1334 1337 1340 1346 1353 1358 1364 1370 1377 1381 1386 1385 1384 1379 1374 1366 1358 1350 1341 1333 1325 1321 1317 1317 1317 1316 1314 1311 1308 1307 1306 1304 1302 1302 1303 1302 1301 1301 1300 1300 1301 1300 1299 1298 1297 1295 1292 1292 1291 1291 1290 1289 1288 1289 1290 1291 1292 1292 1293 1293 1292 1292 1293 1293 1292 1292 1292 1292 1293 1293 1292 1291 1290 1290 1291 1292 1293 1293 1294 1294 1294 1298 1302 1305 1308 1311 1314 1316 1319 1320 1322 1322 1323 1324 1325 1324 1323 1322 1320 1319 1317 1316 1314 1312 1310 1308 1306 1303 1300 1297 1293 1292 1290 1289 1288 1288 1287 1289 1291 1290 1289 1289 1288 1288 1289 1289 1290 1291 1293 1298 1304 1306 1308 1306 1303 1303 1303 1303 1304 1304 1304 1305 1307 1309 1312 1316 1320 1321 1323 1323 1322 1325 1328 1330 1333 1337 1341 1344 1347 1346 1344 1344 1344 1342 1340 1333 1326 1319 1311 1303 1295 1282 1269 1259 1249 1246 1242 1242 1241 1241 1240 1241 1242 1244 1247 1251 1255 1257 1260 1263 1267 1271 1276 1281 1286 1291 1296 1302 1309 1315 1321 1329 1338 1351 1364 1373 1382 1381 1380 1380 1380 1381 1382 1384 1387 1390 1394 1392 1389 1373 1357 1346 1334 1332 1329 1327 1325 1318 1310 1298 1286 1278 1269 1267 1265 1261 1257 1242 1227 1217 1206 1202 1197 1194 1190 1185 1180 1176 1171 1169 1167 1166 1164 1164 1164 1165 1166 1167 1168 1173 1178 1182 1187 1192 1197 1207 1217 1225 1234 1248 1263 1276 1290 1297 1304 1307 1310 1310 1311 1304 1297 1283 1269 1260 1250 1251 1252 1263 1274 1285 1297 1307 1317 1328 1340 1351 1362 1367 1373 1373 1372 1367 1361 1349 1336 1327 1318 1313 1307 1300 1293 1290 1286 1285 1284 1284 1283 1284 1286 1286 1287 1290 1293 1295 1297 1298 1299 1301 1304 1304 1303 1302 1300 1301 1302 1304 1306 1307 1309 1313 1317 1324 1331 1339 1347 1354 1362 1369 1376 1381 1386 1388 1390 1388 1386 1383 1379 1376 1373 1373 1372 1372 1372 1376 1381 1389 1398 1403 1409 1412 1416 1417 1419 1419 1419 1421 1424 1430 1436 1438 1440 1434 1427 1424 1421 1420 1419 1414 1408 1399 1389 1377 1365 1360 1354 1354 1354 1354 1355 1353 1350 1347 1343 1341 1339 1344 1349 1361 1374 1388 1402 1407 1412 1411 1409 1410 1412
1181 1177 1174 1171 1168 1164 1164 1164 1164 1164 1164 1164 1164 1164 1164 1164 1164 1164 1164 1164 1164 1164 1164 1164 1164 1164 1165 1167 1167 1168 1168 1168 1168 1167 1167 1167 1167 1166 1166 1166 1165 1164 1164 1165 1165 1164 1164 1164 1164 1164 1164 1164 1164 1164 1164 1163 1163 1164 1165 1166 1168 1171 1174 1178 1182 1187 1195 1203 1211 1220 1225 1231 1238 1245 1253 1261 1266 1272 1276 1281 1282 1284 1289 1294 1297 1300 1300 1300 1296 1292 1281 1269 1264 1259 1259 1258 1258 1258 1258 1257 1257 1257 1257 1257 1257 1257 1257 1257 1257 1257 1260 1263 1267 1272 1275 1278 1275 1272 1268 1263 1261 1259 1260 1261 1262 1263 1263 1263 1264 1265 1265 1265 1266 1267 1268 1269 1269 1269 1269 1270 1271 1272 1273 1275 1276 1278 1280 1283 1287 1291 1296 1301 1308 1315 1319 1324 1326 1328 1332 1336 1344 1353 1358 1364 1360 1355 1352 1348 1347 1345 1345 1345 1347 1349 1354 1359 1363 1367 1370 1374 1380 1387 1391 1396 1398 1400 1398 1395 1399 1403 1405 1407 1403 1399 1395 1391 1393 1395 1396 1397 1397 1396 1400 1404 1404 1403 1398 1393 1392 1390 1390 1389 1389 1390 1393 1397 1398 1399 1390 1381 1369 1356 1348 1340 1337 1333 1331 1329 1329 1328 1331 1334 1335 1336 1336 1337 1338 1339 1342 1345 1351 1357 1364 1372 1381 1391 1389 1386 1383 1379 1374 1369 1361 1353 1344 1335 1330 1324 1324 1323 1322 1321 1319 1317 1315 1312 1311 1309 1308 1306 1307 1308 1308 1307 1307 1306 1306 1306 1306 1305 1305 1304 1303 1301 1300 1299 1298 1296 1295 1294 1294 1293 1293 1294 1294 1294 1294 1293 1293 1294 1294 1293 1293 1294 1294 1295 1295 1294 1293 1292 1293 1294 1294 1295 1296 1297 1298 1299 1302 1305 1309 1314 1320 1326 1327 1328 1328 1329 1331 1333 1334 1336 1334 1331 1329 1326 1325 1323 1321 1319 1316 1312 1310 1308 1307 1305 1302 1299 1298 1296 1294 1292 1292 1291 1291 1292 1291 1290 1290 1291 1291 1291 1291 1290 1294 1298 1304 1310 1310 1310 1308 1306 1307 1308 1309 1311 1310 1309 1310 1312 1315 1319 1321 1324 1324 1323 1323 1323 1325 1328 1331 1334 1335 1336 1339 1342 1343 1345 1346 1347 1344 1341 1336 1330 1326 1322 1314 1306 1292 1278 1266 1254 1249 1243 1242 1241 1241 1241 1241 1241 1242 1243 1245 1247 1250 1253 1257 1262 1266 1270 1273 1277 1282 1288 1293 1299 1305 1311 1320 1329 1343 1357 1365 1373 1379 1385 1388 1392 1388 1383 1383 1383 1387 1392 1386 1380 1364 1347 1336 1325 1319 1313 1310 1306 1298 1290 1280 1269 1263 1256 1253 1250 1245 1240 1228 1216 1211 1205 1203 1201 1198 1194 1187 1179 1173 1166 1165 1164 1164 1164 1164 1164 1165 1166 1170 1174 1180 1187 1193 1199 1204 1210 1218 1226 1235 1245 1257 1270 1282 1294 1300 1307 1308 1310 1307 1304 1302 1299 1294 1288 1279 1270 1268 1265 1272 1280 1289 1298 1306 1315 1326 1337 1349 1361 1368 1376 1377 1379 1374 1369 1356 1343 1331 1319 1311 1302 1297 1291 1290 1289 1291 1294 1297 1301 1302 1303 1302 1301 1298 1295 1295 1294 1294 1295 1296 1297 1297 1297 1297 1298 1299 1301 1303 1306 1308 1311 1314 1318 1323 1329 1335 1342 1347 1353 1359 1365 1369 1373 1373 1374 1373 1371 1372 1373 1373 1372 1372 1371 1373 1376 1382 1389 1400 1412 1416 1420 1420 1421 1421 1420 1420 1419 1419 1418 1421 1425 1428 1432 1430 1427 1424 1420 1421 1422 1424 1426 1414 1401 1389 1377 1366 1354 1354 1353 1353 1354 1353 1352 1349 1346 1345 1343 1352 1361 1379 1398 1401 1404 1404 1404 1407 1410 1413 1417
1184 1182 1182 1183 1180 1176 1170 1164 1164 1164 1164 1164 1164 1164 1164 1164 1164 1164 1164 1164 1164 1164 1164 1164 1164 1164 1164 1164 1164 1164 1164 1164 1164 1165 1165 1164 1164 1165 1165 1164 1164 1164 1164 1164 1164 1164 1164 1164 1164 1164 1164 1164 1164 1163 1163 1164 1165 1166 1167 1169 1172 1175 1179 1183 1188 1193 1201 1210 1214 1218 1225 1232 1243 1254 1258 1263 1267 1272 1278 1284 1289 1294 1298 1302 1304 1306 1304 1302 1296 1290 1279 1268 1264 1259 1259 1258 1258 1257 1257 1257 1257 1257 1257 1257 1262 1267 1269 1271 1275 1280 1282 1284 1288 1293 1295 1297 1290 1283 1275 1266 1264 1261 1263 1265 1266 1267 1265 1263 1264 1265 1265 1266 1267 1268 1269 1271 1271 1271 1271 1271 1272 1274 1276 1278 1281 1284 1285 1287 1289 1292 1296 1300 1305 1311 1317 1323 1327 1331 1337 1343 1353 1363 1366 1369 1367 1365 1362 1358 1356 1353 1352 1350 1351 1352 1354 1357 1359 1362 1367 1373 1376 1380 1385 1390 1390 1391 1392 1393 1395 1398 1396 1393 1391 1388 1388 1388 1390 1392 1392 1393 1394 1395 1396 1398 1399 1401 1400 1398 1394 1390 1389 1387 1388 1389 1393 1397 1396 1395 1382 1369 1359 1348 1344 1339 1336 1333 1332 1331 1333 1335 1337 1340 1341 1342 1342 1343 1344 1345 1347 1349 1352 1356 1365 1374 1378 1382 1377 1372 1370 1368 1365 1361 1353 1345 1341 1337 1335 1332 1331 1330 1328 1326 1325 1323 1321 1319 1319 1318 1320 1323 1322 1321 1319 1317 1316 1315 1314 1313 1313 1312 1311 1309 1309 1308 1308 1308 1306 1304 1303 1301 1300 1298 1297 1296 1295 1294 1294 1293 1293 1293 1293 1294 1295 1296 1295 1294 1294 1294 1294 1294 1295 1296 1297 1299 1300 1302 1303 1304 1306 1308 1312 1316 1321 1327 1329 1331 1332 1334 1338 1342 1342 1343 1340 1336 1333 1330 1329 1328 1326 1323 1320 1316 1314 1311 1307 1302 1301 1300 1300 1300 1298 1296 1295 1294 1293 1292 1292 1292 1293 1294 1294 1293 1292 1291 1292 1294 1297 1300 1301 1303 1302 1301 1303 1305 1306 1308 1308 1309 1312 1315 1321 1327 1327 1326 1325 1324 1326 1328 1332 1336 1336 1337 1337 1337 1340 1344 1346 1348 1347 1345 1344 1342 1338 1333 1330 1327 1321 1315 1302 1289 1275 1261 1254 1246 1244 1242 1241 1240 1239 1238 1239 1241 1241 1242 1244 1246 1249 1253 1257 1262 1265 1269 1274 1280 1285 1290 1295 1300 1308 1316 1328 1341 1354 1367 1378 1390 1391 1393 1386 1378 1376 1374 1375 1376 1373 1369 1357 1344 1333 1322 1318 1313 1310 1306 1300 1293 1283 1273 1264 1254 1247 1240 1233 1226 1221 1216 1214 1211 1205 1198 1192 1186 1180 1173 1170 1166 1165 1164 1164 1164 1164 1164 1166 1169 1174 1180 1187 1194 1201 1208 1215 1223 1230 1238 1248 1259 1267 1276 1288 1300 1307 1315 1317 1319 1317 1314 1316 1318 1315 1312 1305 1297 1292 1287 1291 1296 1303 1310 1314 1319 1328 1338 1346 1355 1362 1369 1371 1374 1371 1367 1356 1345 1336 1326 1319 1311 1306 1301 1304 1307 1316 1325 1334 1344 1343 1341 1331 1321 1311 1301 1299 1296 1295 1294 1295 1296 1296 1295 1296 1297 1299 1302 1306 1311 1315 1320 1321 1323 1327 1332 1336 1341 1344 1347 1349 1352 1354 1356 1356 1357 1358 1360 1364 1369 1372 1375 1376 1377 1380 1384 1391 1398 1409 1420 1424 1428 1427 1426 1423 1419 1419 1418 1418 1419 1420 1421 1422 1423 1424 1426 1426 1425 1424 1422 1428 1434 1428 1421 1406 1391 1377 1362 1362 1362 1360 1357 1355 1352 1350 1348 1346 1344 1353 1363 1374 1386 1387 1388 1388 1387 1392 1397 1403 1409
1189 1193 1194 1195 1187 1179 1172 1164 1164 1164 1164 1164 1164 1164 1164 1164 1164 1164 1164 1164 1164 1164 1164 1164 1164 1164 1164 1164 1164 1164 1164 1164 1164 1164 1164 1164 1164 1164 1164 1164 1164 1164 1164 1164 1164 1164 1164 1164 1164 1164 1164 1163 1164 1165 1165 1166 1167 1168 1169 1170 1173 1176 1179 1183 1186 1189 1195 1201 1206 1211 1223 1235 1247 1259 1264 1269 1274 1279 1282 1286 1290 1295 1299 1303 1304 1306 1304 1301 1294 1286 1280 1273 1269 1265 1263 1260 1260 1259 1260 1261 1261 1261 1266 1271 1277 1283 1289 1296 1300 1305 1309 1313 1314 1316 1314 1311 1301 1290 1280 1270 1269 1267 1269 1272 1271 1269 1267 1264 1264 1265 1266 1267 1268 1269 1269 1269 1269 1270 1271 1272 1273 1275 1277 1280 1282 1285 1285 1286 1288 1291 1295 1299 1304 1310 1317 1324 1328 1332 1340 1348 1359 1371 1371 1371 1371 1371 1369 1366 1361 1355 1353 1351 1351 1352 1352 1353 1353 1354 1357 1361 1365 1370 1374 1379 1381 1384 1387 1391 1391 1390 1389 1387 1387 1388 1391 1394 1396 1398 1401 1404 1407 1411 1415 1419 1418 1417 1409 1401 1394 1387 1387 1387 1387 1388 1390 1393 1388 1382 1372 1361 1355 1349 1345 1340 1338 1336 1336 1337 1338 1340 1342 1345 1346 1348 1349 1351 1351 1350 1350 1349 1352 1356 1364 1373 1374 1376 1372 1368 1366 1364 1360 1356 1352 1348 1349 1350 1348 1346 1343 1340 1337 1334 1332 1329 1326 1323 1325 1327 1331 1336 1335 1333 1331 1329 1327 1325 1324 1322 1320 1318 1317 1316 1316 1315 1314 1312 1311 1310 1309 1307 1306 1304 1301 1298 1297 1296 1295 1294 1294 1294 1294 1294 1295 1296 1296 1296 1296 1295 1295 1295 1295 1296 1298 1301 1303 1305 1306 1307 1308 1310 1313 1317 1321 1326 1328 1330 1333 1337 1338 1340 1338 1336 1334 1332 1332 1332 1332 1332 1328 1324 1320 1315 1312 1308 1304 1300 1299 1298 1298 1297 1297 1296 1295 1294 1294 1293 1293 1294 1294 1294 1293 1292 1292 1291 1291 1291 1293 1296 1297 1298 1298 1299 1301 1303 1306 1309 1310 1311 1312 1314 1318 1322 1322 1322 1323 1324 1326 1329 1332 1336 1337 1339 1340 1341 1344 1347 1348 1349 1348 1346 1341 1336 1334 1331 1331 1330 1327 1323 1312 1300 1286 1272 1264 1255 1250 1244 1242 1239 1239 1240 1240 1240 1240 1241 1241 1242 1244 1246 1249 1253 1257 1261 1266 1272 1277 1283 1287 1291 1298 1305 1316 1328 1343 1358 1370 1382 1381 1379 1376 1373 1374 1376 1381 1386 1383 1379 1362 1344 1333 1321 1320 1318 1321 1324 1318 1312 1301 1289 1277 1264 1253 1242 1233 1224 1223 1222 1222 1223 1212 1201 1194 1186 1184 1182 1178 1173 1169 1164 1164 1164 1164 1164 1167 1170 1176 1182 1190 1198 1206 1215 1222 1230 1239 1248 1261 1274 1283 1292 1297 1302 1310 1318 1322 1326 1326 1327 1333 1339 1338 1336 1330 1324 1318 1311 1310 1308 1313 1319 1322 1326 1330 1334 1341 1348 1355 1362 1368 1374 1374 1375 1367 1359 1352 1344 1338 1331 1325 1319 1326 1333 1346 1360 1367 1375 1372 1368 1359 1349 1340 1331 1318 1304 1302 1299 1298 1296 1296 1295 1296 1297 1298 1299 1304 1309 1314 1320 1321 1322 1328 1334 1338 1343 1343 1344 1345 1346 1347 1349 1350 1352 1354 1356 1363 1370 1375 1381 1383 1386 1392 1398 1404 1410 1418 1427 1428 1430 1429 1427 1423 1419 1419 1419 1421 1423 1424 1425 1425 1424 1422 1420 1420 1421 1422 1424 1426 1429 1429 1428 1417 1405 1389 1373 1368 1363 1363 1363 1362 1360 1355 1350 1347 1344 1347 1350 1354 1359 1363 1368 1375 1383 1391 1399 1400 1402
1189 1191 1188 1185 1175 1164 1164 1164 1164 1164 1164 1164 1164 1164 1164 1164 1164 1164 1164 1164 1164 1164 1164 1164 1164 1164 1164 1164 1164 1164 1164 1164 1164 1164 1164 1164 1164 1164 1164 1164 1164 1164 1164 1164 1164 1164 1164 1164 1164 1164 1164 1164 1164 1165 1165 1164 1165 1167 1169 1172 1175 1178 1178 1178 1181 1184 1190 1196 1201 1207 1222 1237 1245 1254 1262 1270 1273 1277 1279 1282 1285 1289 1292 1295 1296 1297 1295 1293 1290 1287 1284 1280 1280 1281 1276 1271 1269 1266 1268 1270 1272 1274 1278 1282 1290 1298 1303 1309 1312 1315 1323 1332 1337 1343 1336 1328 1313 1298 1288 1278 1277 1276 1278 1281 1277 1272 1269 1265 1265 1265 1265 1266 1267 1269 1269 1270 1271 1272 1272 1272 1273 1274 1276 1278 1279 1281 1282 1284 1288 1292 1296 1301 1307 1313 1318 1324 1327 1331 1337 1343 1350 1357 1360 1363 1363 1362 1359 1356 1354 1351 1351 1351 1351 1351 1351 1351 1351 1352 1352 1353 1355 1358 1363 1368 1371 1375 1377 1380 1381 1383 1385 1388 1392 1397 1404 1411 1412 1413 1417 1421 1422 1424 1424 1424 1420 1415 1407 1398 1393 1388 1388 1387 1388 1389 1389 1388 1381 1374 1366 1358 1354 1349 1347 1344 1344 1343 1343 1344 1346 1349 1350 1351 1352 1354 1355 1356 1356 1355 1354 1352 1357 1363 1374 1385 1385 1385 1378 1371 1367 1363 1363 1364 1368 1372 1370 1367 1362 1357 1354 1350 1346 1341 1339 1336 1337 1338 1342 1346 1347 1349 1349 1348 1347 1345 1342 1338 1334 1329 1326 1322 1322 1323 1323 1323 1322 1320 1319 1318 1315 1311 1308 1305 1303 1300 1299 1297 1297 1296 1296 1295 1295 1296 1296 1297 1297 1296 1296 1297 1297 1298 1299 1300 1302 1304 1306 1308 1308 1309 1310 1311 1313 1315 1318 1321 1323 1326 1329 1333 1333 1334 1333 1331 1330 1329 1330 1331 1329 1326 1324 1322 1318 1314 1310 1305 1301 1297 1296 1295 1295 1294 1294 1294 1294 1294 1294 1295 1295 1295 1295 1294 1294 1294 1293 1292 1292 1293 1294 1295 1297 1299 1300 1301 1302 1303 1305 1307 1308 1310 1311 1313 1315 1317 1319 1322 1325 1328 1328 1328 1330 1333 1335 1337 1338 1339 1341 1343 1345 1347 1345 1343 1337 1330 1330 1330 1332 1335 1332 1329 1321 1312 1300 1288 1276 1264 1256 1248 1244 1240 1240 1240 1239 1238 1239 1240 1241 1242 1243 1244 1245 1247 1250 1254 1259 1264 1269 1274 1278 1283 1288 1293 1302 1312 1325 1338 1348 1359 1362 1366 1372 1379 1387 1395 1402 1409 1397 1385 1368 1350 1340 1330 1331 1332 1337 1342 1336 1330 1318 1306 1289 1271 1257 1242 1232 1222 1220 1217 1216 1214 1207 1199 1199 1199 1194 1189 1182 1174 1170 1165 1165 1164 1165 1166 1167 1169 1176 1184 1194 1204 1213 1223 1233 1243 1250 1258 1268 1278 1289 1301 1302 1304 1309 1314 1323 1332 1340 1348 1351 1354 1352 1350 1346 1342 1336 1329 1324 1318 1322 1327 1331 1335 1338 1342 1345 1349 1352 1356 1360 1365 1371 1377 1376 1374 1370 1366 1357 1348 1342 1335 1342 1350 1360 1370 1371 1373 1369 1365 1363 1361 1360 1359 1347 1335 1331 1326 1322 1317 1310 1303 1301 1298 1299 1301 1304 1308 1312 1317 1318 1319 1323 1327 1332 1337 1340 1343 1344 1346 1348 1350 1351 1353 1355 1357 1363 1370 1377 1385 1389 1394 1400 1407 1413 1419 1422 1425 1425 1425 1423 1421 1420 1419 1421 1424 1429 1435 1436 1437 1431 1424 1419 1414 1419 1425 1426 1428 1424 1420 1418 1416 1412 1407 1395 1382 1372 1362 1364 1367 1368 1370 1362 1354 1349 1344 1345 1347 1349 1352 1358 1365 1375 1386 1396 1407 1408 1410
1179 1178 1171 1164 1164 1164 1164 1164 1164 1164 1164 1164 1164 1164 1164 1164 1164 1164 1164 1164 1164 1164 1164 1164 1164 1164 1164 1164 1164 1164 1164 1164 1164 1164 1165 1166 1165 1164 1164 1164 1164 1164 1164 1164 1164 1164 1164 1164 1164 1164 1164 1165 1165 1165 1165 1164 1165 1167 1168 1170 1172 1175 1176 1177 1182 1187 1190 1193 1197 1201 1215 1229 1236 1244 1249 1255 1260 1266 1269 1272 1275 1279 1281 1283 1283 1284 1285 1286 1285 1284 1283 1281 1281 1282 1279 1276 1275 1274 1277 1281 1282 1283 1285 1288 1296 1304 1309 1314 1317 1321 1331 1341 1346 1351 1341 1330 1316 1301 1295 1289 1288 1286 1286 1285 1282 1278 1274 1270 1268 1266 1268 1270 1272 1274 1274 1274 1273 1272 1273 1274 1275 1276 1276 1277 1278 1280 1284 1289 1294 1300 1306 1312 1317 1322 1323 1325 1329 1334 1339 1345 1349 1354 1357 1361 1360 1359 1356 1353 1352 1350 1350 1350 1350 1350 1350 1349 1350 1351 1352 1353 1354 1355 1357 1359 1362 1365 1369 1373 1377 1382 1386 1391 1404 1417 1419 1422 1416 1410 1409 1408 1408 1408 1405 1402 1400 1397 1395 1393 1393 1393 1398 1403 1404 1406 1398 1389 1380 1370 1363 1356 1354 1351 1351 1352 1353 1355 1357 1360 1361 1363 1362 1360 1360 1359 1359 1358 1358 1357 1358 1360 1368 1377 1387 1397 1392 1387 1380 1372 1369 1366 1371 1376 1377 1378 1376 1373 1370 1366 1360 1353 1350 1347 1348 1349 1356 1364 1364 1365 1366 1368 1365 1362 1357 1351 1344 1337 1333 1329 1331 1333 1334 1336 1334 1332 1330 1328 1325 1322 1318 1314 1310 1306 1304 1302 1301 1299 1298 1296 1296 1295 1296 1297 1297 1297 1297 1296 1296 1297 1298 1299 1300 1302 1303 1304 1305 1307 1307 1307 1309 1311 1313 1315 1317 1319 1321 1324 1326 1329 1329 1330 1329 1327 1326 1325 1323 1321 1320 1318 1316 1313 1309 1305 1302 1298 1297 1295 1294 1293 1293 1292 1292 1291 1293 1295 1295 1295 1295 1294 1294 1293 1293 1292 1292 1292 1292 1293 1297 1301 1303 1306 1306 1306 1306 1306 1306 1306 1306 1307 1309 1312 1316 1320 1324 1328 1329 1331 1331 1332 1334 1336 1336 1335 1336 1337 1340 1344 1344 1343 1338 1333 1330 1326 1328 1330 1333 1336 1334 1331 1323 1315 1303 1291 1282 1273 1265 1257 1251 1245 1243 1240 1240 1239 1239 1239 1239 1240 1241 1242 1242 1243 1244 1246 1250 1254 1259 1265 1270 1276 1280 1285 1291 1297 1307 1317 1327 1337 1348 1360 1373 1386 1396 1406 1407 1408 1393 1377 1366 1355 1355 1356 1359 1363 1359 1354 1343 1332 1317 1301 1287 1273 1258 1242 1234 1225 1223 1221 1216 1211 1208 1205 1209 1213 1205 1197 1188 1179 1174 1168 1167 1165 1165 1165 1166 1167 1174 1181 1192 1203 1212 1222 1234 1246 1255 1264 1269 1275 1283 1292 1295 1299 1304 1309 1318 1328 1336 1345 1350 1356 1355 1354 1352 1350 1348 1345 1340 1335 1335 1335 1340 1346 1349 1353 1353 1353 1355 1358 1358 1357 1358 1359 1360 1361 1356 1351 1346 1341 1343 1345 1357 1369 1376 1384 1379 1374 1366 1357 1354 1350 1351 1353 1351 1348 1341 1334 1332 1330 1324 1317 1311 1304 1305 1307 1308 1309 1313 1318 1319 1320 1320 1320 1322 1324 1329 1334 1339 1345 1347 1349 1350 1352 1355 1358 1363 1368 1376 1385 1391 1398 1403 1409 1415 1421 1424 1428 1428 1427 1425 1422 1423 1424 1426 1428 1428 1428 1429 1430 1427 1424 1418 1411 1414 1417 1417 1417 1411 1404 1404 1403 1404 1405 1396 1387 1375 1363 1366 1370 1375 1381 1372 1363 1358 1353 1360 1368 1368 1367 1371 1375 1383 1392 1398 1404 1406 1409
1168 1168 1167 1166 1165 1164 1164 1164 1164 1164 1164 1164 1166 1169 1169 1168 1168 1167 1166 1165 1165 1166 1167 1169 1170 1171 1171 1171 1171 1170 1170 1170 1169 1167 1167 1166 1167 1169 1167 1164 1164 1164 1164 1164 1164 1164 1164 1164 1164 1164 1164 1164 1164 1165 1165 1165 1165 1165 1166 1167 1169 1172 1174 1177 1180 1184 1185 1187 1191 1195 1203 1212 1219 1226 1232 1238 1247 1257 1261 1266 1266 1267 1270 1273 1275 1277 1280 1283 1281 1279 1278 1276 1276 1277 1275 1272 1273 1274 1278 1282 1283 1284 1288 1292 1299 1307 1312 1317 1323 1329 1338 1347 1349 1352 1340 1328 1317 1305 1301 1296 1295 1294 1294 1293 1288 1282 1278 1273 1272 1271 1273 1276 1279 1282 1281 1280 1281 1282 1282 1282 1281 1279 1279 1279 1281 1284 1289 1295 1301 1307 1312 1318 1321 1324 1326 1329 1334 1340 1348 1356 1358 1361 1365 1369 1367 1365 1362 1358 1356 1354 1353 1352 1353 1354 1353 1352 1352 1352 1354 1357 1358 1360 1360 1360 1360 1360 1366 1372 1376 1381 1392 1403 1410 1418 1412 1405 1403 1401 1400 1399 1397 1394 1393 1392 1392 1393 1394 1395 1401 1408 1408 1409 1403 1396 1387 1378 1371 1363 1361 1358 1358 1359 1361 1364 1368 1373 1377 1381 1382 1383 1376 1369 1365 1360 1359 1358 1361 1364 1369 1374 1383 1392 1397 1402 1395 1388 1383 1377 1375 1373 1375 1377 1377 1378 1379 1380 1374 1368 1362 1356 1359 1363 1370 1377 1378 1380 1376 1372 1373 1375 1369 1362 1354 1345 1340 1335 1336 1338 1344 1350 1350 1351 1346 1340 1334 1328 1324 1320 1317 1313 1310 1306 1304 1302 1301 1299 1299 1298 1298 1299 1299 1298 1298 1298 1298 1297 1298 1300 1301 1302 1302 1303 1303 1303 1303 1303 1305 1307 1309 1312 1313 1315 1316 1318 1321 1324 1325 1327 1326 1325 1323 1320 1320 1319 1318 1316 1314 1311 1308 1304 1301 1298 1297 1296 1296 1295 1294 1293 1293 1293 1293 1292 1292 1293 1293 1293 1292 1291 1291 1291 1291 1292 1292 1292 1293 1295 1301 1307 1308 1310 1308 1306 1306 1306 1305 1304 1305 1306 1308 1311 1315 1319 1322 1326 1326 1326 1328 1331 1332 1334 1333 1332 1334 1337 1337 1337 1336 1335 1330 1324 1323 1322 1325 1328 1330 1332 1330 1327 1321 1314 1306 1297 1292 1287 1277 1267 1260 1253 1249 1245 1243 1241 1240 1239 1239 1239 1239 1238 1238 1238 1239 1240 1243 1246 1250 1255 1260 1266 1271 1276 1281 1286 1293 1300 1310 1321 1335 1350 1363 1377 1383 1390 1394 1398 1389 1379 1376 1373 1370 1367 1361 1354 1345 1336 1320 1303 1295 1287 1278 1269 1261 1253 1254 1255 1253 1250 1239 1227 1225 1223 1223 1223 1215 1207 1198 1189 1181 1173 1170 1166 1166 1166 1166 1167 1171 1175 1188 1201 1212 1224 1236 1248 1255 1262 1267 1272 1277 1283 1288 1293 1298 1304 1312 1320 1328 1337 1345 1354 1355 1356 1356 1357 1359 1361 1357 1352 1350 1348 1355 1363 1363 1364 1362 1360 1359 1357 1354 1351 1348 1345 1342 1338 1337 1335 1336 1338 1347 1357 1375 1393 1398 1403 1391 1379 1370 1361 1357 1353 1347 1341 1340 1338 1335 1331 1325 1318 1314 1309 1309 1310 1312 1315 1315 1314 1315 1316 1317 1318 1318 1318 1319 1321 1324 1327 1332 1337 1339 1341 1343 1346 1351 1357 1361 1365 1372 1379 1389 1400 1407 1414 1417 1421 1423 1426 1427 1428 1425 1422 1424 1426 1426 1425 1423 1420 1419 1417 1418 1419 1418 1417 1413 1408 1405 1402 1397 1392 1392 1391 1394 1397 1392 1386 1376 1366 1369 1372 1376 1380 1376 1372 1371 1370 1380 1390 1392 1394 1394 1393 1393 1394 1392 1390 1386 1382
1168 1169 1169 1168 1166 1164 1166 1169 1170 1171 1171 1171 1171 1172 1172 1172 1172 1173 1176 1179 1183 1187 1191 1195 1200 1205 1204 1202 1197 1191 1188 1185 1179 1173 1170 1166 1167 1169 1166 1163 1163 1164 1164 1164 1164 1164 1164 1164 1164 1164 1164 1165 1165 1165 1165 1165 1165 1165 1166 1168 1170 1172 1174 1177 1179 1181 1181 1181 1185 1190 1194 1199 1206 1213 1219 1226 1236 1246 1250 1254 1254 1255 1258 1262 1264 1267 1269 1272 1271 1269 1268 1266 1267 1268 1268 1269 1270 1271 1277 1283 1284 1286 1289 1292 1298 1305 1309 1314 1321 1329 1337 1345 1342 1339 1329 1318 1311 1304 1298 1292 1290 1287 1285 1282 1280 1277 1277 1277 1276 1275 1276 1278 1281 1284 1285 1287 1291 1296 1293 1289 1286 1283 1284 1286 1287 1288 1291 1295 1301 1308 1312 1317 1320 1323 1327 1332 1336 1341 1347 1353 1357 1361 1363 1366 1364 1362 1360 1357 1359 1361 1362 1364 1362 1360 1359 1357 1357 1356 1358 1361 1361 1360 1359 1358 1358 1359 1364 1369 1374 1379 1386 1394 1394 1393 1391 1388 1388 1388 1389 1390 1392 1394 1394 1395 1397 1399 1401 1404 1406 1408 1402 1396 1388 1380 1375 1370 1368 1365 1365 1366 1369 1373 1377 1382 1390 1399 1402 1406 1398 1389 1378 1367 1363 1358 1360 1362 1367 1373 1382 1391 1398 1405 1404 1402 1396 1390 1388 1385 1384 1382 1382 1382 1383 1384 1383 1381 1375 1369 1373 1378 1382 1387 1389 1392 1386 1380 1374 1367 1366 1365 1359 1352 1349 1346 1347 1349 1349 1349 1350 1351 1349 1347 1340 1333 1329 1324 1321 1318 1316 1313 1312 1310 1308 1306 1304 1302 1302 1301 1301 1302 1301 1300 1300 1299 1299 1299 1299 1300 1301 1302 1302 1303 1303 1302 1302 1303 1305 1308 1310 1312 1312 1311 1312 1314 1316 1318 1318 1319 1317 1315 1314 1313 1313 1313 1311 1309 1306 1302 1300 1298 1298 1299 1298 1297 1296 1294 1294 1293 1293 1293 1293 1292 1292 1292 1292 1292 1292 1291 1291 1291 1291 1291 1291 1291 1292 1294 1296 1299 1299 1299 1300 1301 1301 1301 1301 1300 1301 1302 1303 1305 1308 1311 1314 1317 1317 1318 1320 1322 1323 1324 1328 1332 1334 1337 1335 1333 1329 1325 1322 1318 1318 1317 1318 1319 1319 1318 1315 1312 1310 1307 1306 1305 1303 1301 1292 1283 1274 1265 1261 1256 1252 1248 1247 1245 1243 1241 1240 1239 1239 1238 1238 1239 1240 1241 1244 1248 1251 1255 1260 1266 1271 1276 1282 1289 1298 1307 1319 1332 1346 1360 1373 1387 1391 1396 1396 1397 1397 1398 1384 1370 1351 1332 1320 1308 1300 1291 1284 1277 1276 1274 1277 1281 1283 1285 1276 1266 1254 1242 1244 1247 1244 1240 1230 1219 1208 1197 1190 1182 1176 1169 1167 1165 1165 1165 1168 1171 1183 1196 1207 1219 1229 1240 1250 1261 1265 1270 1275 1280 1283 1287 1292 1298 1305 1313 1323 1333 1339 1345 1346 1347 1352 1357 1364 1371 1371 1371 1363 1354 1363 1373 1376 1379 1375 1370 1364 1358 1351 1343 1341 1338 1335 1331 1331 1330 1333 1337 1349 1362 1379 1396 1405 1415 1410 1404 1395 1386 1378 1370 1361 1352 1346 1339 1332 1325 1319 1312 1311 1309 1312 1316 1320 1324 1325 1327 1331 1335 1334 1332 1329 1325 1324 1322 1323 1325 1328 1332 1334 1337 1338 1340 1342 1345 1349 1354 1360 1367 1377 1388 1396 1405 1409 1414 1416 1419 1418 1416 1416 1416 1419 1422 1422 1421 1418 1415 1411 1407 1406 1405 1403 1401 1399 1396 1391 1385 1383 1380 1382 1384 1387 1391 1387 1383 1374 1364 1364 1365 1372 1379 1380 1381 1379 1376 1385 1394 1402 1411 1417 1424 1420 1416 1402 1387 1375 1363
1170 1170 1170 1170 1171 1173 1174 1175 1175 1175 1175 1176 1178 1180 1183 1186 1191 1197 1204 1212 1223 1234 1244 1254 1252 1249 1245 1241 1228 1215 1209 1203 1194 1184 1176 1167 1167 1167 1166 1164 1164 1164 1164 1164 1164 1164 1164 1164 1164 1164 1164 1164 1164 1163 1163 1163 1163 1162 1164 1166 1168 1171 1173 1175 1175 1176 1176 1176 1181 1186 1189 1192 1197 1203 1208 1214 1222 1230 1234 1239 1243 1248 1251 1255 1258 1261 1263 1265 1264 1263 1262 1261 1260 1258 1260 1263 1265 1268 1273 1278 1283 1288 1289 1290 1295 1300 1305 1310 1314 1319 1322 1325 1323 1320 1313 1305 1299 1293 1288 1283 1281 1279 1279 1278 1278 1279 1280 1281 1281 1281 1283 1286 1290 1294 1294 1293 1293 1293 1293 1292 1291 1289 1290 1292 1292 1293 1294 1296 1300 1304 1308 1313 1317 1321 1327 1333 1336 1339 1344 1349 1355 1361 1361 1360 1357 1354 1358 1362 1366 1371 1371 1371 1367 1363 1361 1359 1360 1361 1361 1362 1361 1360 1359 1358 1358 1359 1361 1363 1367 1371 1375 1379 1380 1381 1381 1382 1382 1382 1386 1391 1400 1410 1415 1420 1424 1428 1425 1422 1414 1405 1396 1387 1382 1376 1375 1373 1373 1373 1374 1376 1382 1389 1397 1405 1411 1417 1411 1405 1393 1380 1371 1362 1361 1360 1363 1367 1376 1386 1397 1409 1412 1416 1411 1405 1400 1394 1392 1389 1387 1385 1387 1389 1389 1389 1384 1378 1379 1380 1386 1392 1393 1394 1391 1387 1378 1368 1362 1356 1354 1352 1350 1348 1353 1358 1362 1366 1363 1359 1353 1347 1342 1336 1333 1329 1327 1325 1324 1322 1322 1321 1319 1317 1315 1312 1310 1307 1306 1304 1303 1302 1302 1301 1301 1300 1300 1301 1301 1302 1302 1302 1302 1302 1302 1302 1302 1303 1306 1310 1310 1310 1308 1306 1306 1307 1308 1310 1310 1309 1306 1303 1304 1305 1305 1306 1305 1303 1301 1299 1299 1300 1301 1303 1301 1299 1298 1296 1295 1294 1294 1295 1294 1293 1293 1293 1292 1291 1291 1291 1291 1291 1291 1291 1291 1292 1292 1292 1292 1291 1292 1293 1295 1297 1297 1298 1297 1296 1296 1296 1296 1297 1299 1302 1303 1305 1307 1310 1311 1312 1312 1312 1316 1320 1325 1330 1328 1325 1321 1316 1313 1310 1311 1312 1313 1315 1311 1307 1305 1302 1301 1300 1302 1304 1306 1309 1304 1298 1289 1279 1274 1269 1266 1262 1261 1260 1258 1255 1253 1250 1245 1240 1239 1238 1238 1238 1240 1242 1243 1244 1247 1250 1255 1261 1268 1275 1283 1292 1302 1313 1327 1342 1359 1377 1382 1388 1390 1393 1395 1397 1380 1363 1352 1340 1332 1323 1313 1302 1301 1299 1304 1310 1309 1308 1302 1295 1281 1267 1265 1262 1271 1281 1275 1268 1251 1234 1219 1203 1194 1184 1178 1172 1169 1166 1166 1165 1167 1169 1180 1191 1201 1211 1221 1231 1240 1250 1256 1262 1267 1272 1276 1280 1286 1292 1299 1306 1314 1322 1327 1332 1334 1336 1342 1348 1354 1360 1363 1366 1362 1357 1357 1358 1360 1362 1359 1356 1351 1345 1341 1336 1336 1337 1333 1328 1325 1322 1326 1331 1341 1351 1362 1374 1385 1396 1401 1406 1405 1404 1397 1389 1381 1373 1366 1359 1348 1337 1329 1320 1316 1312 1312 1312 1315 1319 1322 1326 1330 1334 1337 1340 1337 1333 1328 1323 1323 1322 1325 1328 1328 1328 1329 1330 1333 1336 1340 1345 1348 1352 1360 1368 1374 1381 1389 1398 1400 1403 1403 1402 1408 1414 1417 1420 1421 1423 1422 1420 1414 1407 1398 1389 1385 1381 1379 1377 1375 1372 1372 1371 1375 1380 1380 1379 1375 1371 1368 1364 1364 1364 1368 1373 1376 1379 1380 1381 1390 1400 1409 1418 1426 1434 1431 1428 1413 1398 1381 1364
1173 1174 1175 1177 1181 1185 1189 1194 1194 1194 1197 1200 1202 1204 1209 1215 1224 1234 1248 1263 1275 1287 1292 1298 1296 1293 1287 1281 1262 1242 1227 1212 1200 1188 1179 1170 1168 1166 1165 1164 1164 1164 1164 1164 1164 1164 1164 1164 1164 1164 1164 1164 1165 1166 1165 1164 1163 1162 1163 1164 1166 1168 1168 1168 1168 1167 1169 1171 1176 1181 1183 1186 1189 1192 1198 1204 1209 1215 1220 1226 1231 1237 1243 1249 1254 1260 1262 1265 1266 1267 1265 1263 1258 1252 1252 1253 1257 1261 1265 1269 1274 1279 1282 1285 1287 1290 1295 1300 1303 1306 1306 1305 1303 1301 1296 1291 1288 1284 1284 1283 1282 1281 1281 1281 1281 1282 1284 1287 1289 1291 1294 1298 1299 1300 1299 1297 1298 1299 1300 1302 1302 1303 1302 1300 1300 1301 1302 1303 1304 1305 1308 1312 1316 1320 1323 1327 1332 1337 1342 1347 1351 1356 1353 1349 1349 1350 1357 1364 1366 1368 1366 1363 1362 1360 1360 1360 1361 1363 1363 1364 1363 1361 1360 1359 1360 1361 1363 1366 1370 1374 1376 1379 1378 1377 1377 1378 1379 1381 1384 1388 1395 1402 1406 1411 1412 1414 1413 1411 1405 1399 1396 1393 1388 1383 1382 1381 1382 1383 1386 1389 1397 1405 1413 1421 1415 1409 1400 1390 1380 1370 1366 1362 1362 1363 1368 1373 1382 1392 1403 1414 1413 1411 1406 1400 1398 1395 1392 1389 1389 1390 1393 1397 1395 1392 1386 1379 1381 1384 1386 1388 1386 1384 1377 1370 1364 1357 1355 1353 1353 1354 1358 1363 1368 1373 1370 1367 1360 1352 1347 1341 1340 1338 1337 1335 1335 1336 1335 1333 1332 1331 1328 1324 1320 1316 1315 1313 1311 1308 1306 1304 1303 1301 1301 1301 1301 1301 1301 1302 1302 1303 1303 1302 1302 1302 1302 1302 1302 1303 1303 1303 1302 1301 1302 1303 1303 1302 1301 1299 1299 1299 1299 1300 1300 1300 1300 1299 1299 1300 1302 1304 1303 1302 1300 1298 1297 1296 1295 1294 1294 1293 1293 1293 1292 1291 1291 1291 1291 1291 1291 1291 1291 1291 1291 1292 1292 1292 1292 1293 1293 1293 1294 1295 1295 1296 1296 1296 1295 1294 1294 1293 1293 1294 1295 1296 1299 1303 1303 1303 1302 1300 1300 1301 1301 1302 1302 1303 1301 1298 1297 1295 1295 1294 1294 1293 1290 1286 1286 1287 1289 1292 1296 1300 1302 1305 1304 1302 1295 1287 1282 1276 1273 1270 1270 1270 1271 1273 1272 1271 1263 1254 1248 1242 1240 1237 1237 1236 1237 1238 1239 1241 1245 1249 1256 1263 1271 1279 1288 1298 1310 1323 1338 1354 1366 1379 1381 1383 1383 1383 1380 1376 1380 1385 1376 1367 1351 1334 1327 1319 1318 1317 1314 1310 1303 1296 1285 1273 1279 1285 1292 1299 1292 1284 1264 1243 1230 1217 1205 1192 1184 1175 1171 1167 1167 1166 1167 1168 1174 1181 1191 1202 1211 1220 1228 1237 1244 1252 1258 1264 1268 1273 1279 1286 1292 1298 1306 1314 1320 1327 1327 1328 1332 1336 1340 1345 1348 1352 1350 1348 1345 1342 1341 1339 1336 1333 1330 1326 1325 1324 1324 1323 1319 1315 1315 1314 1320 1327 1333 1339 1347 1355 1367 1379 1386 1394 1399 1405 1407 1409 1403 1397 1384 1370 1357 1344 1340 1335 1329 1322 1322 1322 1323 1325 1325 1324 1324 1324 1326 1329 1327 1325 1323 1321 1322 1323 1324 1326 1326 1326 1326 1327 1330 1334 1336 1339 1341 1344 1348 1353 1358 1363 1369 1376 1380 1384 1387 1391 1397 1404 1409 1415 1416 1417 1416 1414 1408 1402 1394 1386 1381 1376 1374 1371 1370 1369 1369 1368 1369 1370 1369 1367 1364 1361 1360 1358 1359 1361 1361 1362 1364 1366 1372 1379 1389 1399 1407 1415 1418 1421 1422 1423 1412 1400 1385 1369
1180 1183 1188 1194 1198 1202 1208 1215 1216 1218 1224 1231 1233 1236 1244 1252 1261 1271 1282 1293 1305 1318 1324 1330 1326 1321 1310 1299 1284 1268 1240 1212 1198 1184 1175 1166 1165 1163 1163 1164 1164 1164 1164 1164 1164 1164 1164 1164 1164 1164 1164 1165 1165 1165 1165 1165 1164 1162 1163 1164 1164 1165 1165 1164 1164 1165 1166 1168 1172 1176 1177 1178 1181 1184 1190 1197 1200 1204 1210 1217 1222 1228 1234 1240 1247 1254 1258 1262 1264 1266 1264 1262 1257 1251 1249 1247 1249 1251 1253 1256 1260 1264 1267 1270 1273 1276 1278 1281 1283 1285 1286 1288 1287 1286 1286 1285 1288 1291 1290 1289 1287 1285 1286 1287 1287 1286 1289 1292 1295 1298 1301 1305 1306 1307 1308 1309 1312 1315 1315 1316 1316 1315 1315 1314 1314 1313 1312 1310 1310 1310 1311 1312 1313 1315 1317 1320 1324 1328 1331 1335 1337 1339 1338 1337 1338 1340 1344 1348 1348 1348 1348 1349 1351 1353 1357 1362 1366 1371 1369 1367 1365 1362 1364 1367 1371 1375 1376 1378 1378 1378 1376 1373 1371 1368 1368 1368 1371 1374 1377 1381 1385 1390 1392 1395 1396 1398 1398 1398 1398 1399 1399 1399 1395 1391 1394 1397 1399 1401 1399 1397 1399 1402 1407 1412 1404 1396 1387 1378 1373 1368 1367 1365 1366 1367 1372 1377 1388 1399 1405 1412 1407 1402 1397 1392 1392 1391 1390 1389 1391 1394 1396 1399 1394 1389 1387 1384 1385 1387 1387 1386 1382 1378 1370 1361 1358 1354 1354 1355 1359 1364 1369 1374 1371 1368 1362 1356 1353 1349 1349 1348 1348 1348 1350 1352 1353 1355 1352 1349 1345 1341 1336 1331 1327 1322 1319 1315 1314 1312 1310 1307 1306 1304 1304 1303 1303 1302 1302 1302 1302 1301 1302 1303 1303 1303 1303 1303 1302 1301 1300 1299 1299 1299 1299 1300 1300 1299 1298 1297 1297 1298 1298 1297 1297 1297 1297 1297 1299 1301 1301 1301 1299 1297 1297 1296 1296 1297 1296 1295 1294 1293 1293 1292 1292 1291 1291 1291 1291 1291 1291 1291 1291 1292 1292 1292 1292 1292 1292 1291 1292 1293 1293 1293 1294 1295 1295 1296 1295 1294 1293 1292 1291 1290 1289 1288 1289 1291 1291 1290 1290 1289 1289 1289 1287 1285 1285 1286 1285 1283 1283 1282 1282 1282 1281 1280 1279 1277 1277 1278 1280 1282 1284 1287 1288 1290 1289 1288 1286 1283 1281 1278 1278 1277 1279 1282 1286 1291 1294 1297 1291 1284 1273 1261 1251 1241 1238 1234 1234 1233 1234 1236 1239 1242 1247 1253 1260 1267 1276 1285 1295 1306 1318 1330 1344 1358 1363 1369 1372 1375 1383 1391 1393 1395 1377 1358 1343 1328 1324 1319 1319 1318 1314 1309 1301 1293 1287 1280 1285 1291 1298 1306 1299 1291 1263 1234 1226 1218 1207 1195 1186 1177 1174 1171 1169 1167 1167 1167 1171 1176 1184 1193 1202 1211 1219 1227 1234 1241 1246 1251 1256 1262 1267 1273 1278 1284 1292 1300 1306 1313 1315 1317 1321 1326 1332 1338 1342 1347 1346 1345 1340 1335 1330 1325 1320 1315 1313 1310 1310 1309 1308 1306 1304 1301 1301 1301 1310 1320 1325 1330 1337 1344 1353 1362 1367 1373 1381 1389 1397 1405 1405 1405 1397 1389 1372 1355 1347 1338 1337 1335 1337 1340 1347 1354 1355 1357 1354 1351 1345 1338 1333 1327 1325 1322 1323 1324 1324 1325 1325 1325 1326 1328 1331 1335 1337 1339 1340 1342 1345 1349 1352 1356 1359 1363 1366 1370 1374 1379 1385 1391 1395 1400 1401 1403 1403 1402 1398 1394 1387 1380 1378 1376 1375 1373 1373 1373 1373 1372 1372 1372 1368 1364 1361 1357 1357 1356 1356 1357 1357 1356 1359 1362 1370 1379 1388 1398 1405 1412 1412 1411 1407 1403 1397 1390 1378 1365
1190 1197 1204 1211 1214 1217 1223 1229 1233 1238 1245 1252 1258 1265 1271 1278 1287 1297 1308 1319 1328 1338 1340 1342 1337 1331 1323 1315 1300 1284 1253 1222 1202 1182 1175 1168 1166 1163 1163 1164 1164 1164 1164 1164 1164 1164 1164 1164 1164 1164 1164 1165 1165 1164 1164 1164 1164 1164 1164 1164 1164 1165 1165 1165 1165 1164 1165 1166 1168 1171 1172 1174 1177 1180 1184 1189 1192 1195 1201 1208 1214 1220 1226 1232 1239 1247 1251 1256 1257 1258 1258 1259 1254 1248 1244 1240 1241 1243 1246 1249 1252 1256 1258 1261 1265 1269 1273 1277 1277 1278 1280 1282 1282 1281 1285 1290 1294 1299 1295 1291 1291 1290 1291 1293 1292 1291 1295 1300 1303 1307 1310 1313 1315 1317 1320 1324 1325 1326 1326 1325 1325 1325 1327 1329 1328 1327 1323 1319 1319 1319 1317 1315 1315 1316 1317 1318 1319 1320 1322 1324 1326 1329 1331 1334 1334 1335 1335 1336 1336 1337 1338 1339 1345 1351 1360 1369 1372 1375 1371 1367 1370 1374 1379 1384 1385 1386 1386 1387 1386 1384 1378 1371 1368 1365 1365 1364 1365 1367 1370 1373 1377 1381 1384 1388 1391 1394 1397 1401 1405 1409 1409 1408 1411 1415 1422 1429 1427 1424 1414 1403 1400 1397 1397 1397 1390 1383 1378 1373 1371 1369 1369 1370 1371 1373 1380 1388 1395 1403 1404 1406 1402 1397 1395 1392 1392 1391 1391 1392 1395 1398 1398 1397 1393 1388 1390 1392 1394 1396 1394 1392 1383 1373 1366 1358 1357 1355 1360 1365 1370 1375 1373 1371 1365 1359 1356 1352 1352 1353 1353 1354 1356 1358 1361 1365 1365 1366 1363 1359 1353 1346 1339 1331 1326 1321 1319 1316 1314 1312 1311 1309 1308 1306 1306 1305 1304 1303 1303 1303 1303 1302 1302 1302 1302 1302 1302 1301 1301 1301 1301 1300 1300 1299 1298 1297 1297 1297 1297 1297 1297 1297 1297 1297 1297 1296 1296 1297 1297 1296 1296 1296 1296 1296 1297 1298 1299 1300 1299 1298 1296 1294 1294 1294 1293 1291 1291 1291 1291 1291 1292 1293 1293 1292 1292 1292 1292 1293 1293 1292 1292 1292 1292 1292 1293 1294 1294 1293 1292 1291 1290 1289 1288 1286 1285 1283 1283 1283 1283 1282 1281 1280 1280 1280 1279 1278 1278 1278 1278 1277 1277 1276 1275 1274 1272 1270 1269 1267 1267 1267 1268 1269 1272 1275 1276 1278 1278 1277 1278 1279 1281 1283 1285 1288 1291 1295 1300 1306 1310 1314 1315 1317 1306 1294 1274 1254 1246 1238 1235 1232 1232 1233 1235 1237 1241 1245 1249 1254 1261 1268 1278 1288 1299 1310 1323 1336 1350 1364 1372 1380 1381 1382 1378 1374 1362 1349 1341 1332 1328 1324 1321 1318 1307 1296 1292 1288 1288 1288 1292 1297 1301 1306 1299 1291 1263 1234 1221 1207 1204 1201 1191 1181 1177 1172 1170 1167 1167 1166 1169 1172 1179 1186 1194 1203 1210 1217 1223 1229 1234 1239 1244 1250 1255 1260 1265 1271 1278 1285 1291 1298 1304 1310 1314 1319 1323 1328 1332 1336 1335 1334 1329 1323 1317 1311 1308 1304 1303 1301 1301 1301 1301 1301 1301 1301 1301 1301 1308 1316 1321 1326 1330 1335 1338 1342 1347 1352 1358 1364 1370 1377 1380 1384 1383 1382 1374 1365 1360 1355 1353 1351 1352 1354 1361 1368 1372 1377 1378 1379 1374 1369 1360 1351 1343 1334 1331 1328 1327 1325 1325 1324 1326 1328 1333 1339 1342 1345 1346 1347 1351 1355 1358 1361 1363 1366 1369 1372 1374 1377 1384 1391 1395 1400 1404 1409 1408 1407 1403 1398 1394 1389 1388 1386 1386 1385 1386 1388 1391 1394 1395 1397 1388 1378 1373 1367 1365 1362 1358 1354 1354 1354 1358 1362 1372 1382 1387 1392 1395 1398 1397 1396 1394 1391 1383 1374 1364 1354
1203 1212 1217 1222 1226 1231 1238 1246 1250 1255 1259 1263 1272 1281 1290 1300 1313 1326 1335 1345 1348 1352 1350 1347 1346 1344 1337 1329 1312 1295 1271 1246 1220 1193 1183 1173 1170 1166 1165 1163 1163 1164 1164 1164 1164 1164 1164 1164 1164 1164 1164 1164 1164 1165 1164 1163 1163 1163 1163 1164 1164 1165 1165 1164 1164 1165 1165 1165 1167 1169 1170 1172 1173 1174 1177 1181 1183 1186 1190 1194 1200 1207 1212 1218 1225 1233 1239 1245 1247 1249 1249 1250 1247 1244 1241 1238 1240 1242 1247 1253 1257 1261 1264 1267 1271 1275 1279 1284 1282 1280 1279 1277 1278 1279 1285 1292 1295 1299 1297 1294 1294 1294 1293 1291 1295 1299 1306 1314 1319 1324 1325 1326 1327 1329 1330 1332 1332 1331 1331 1331 1333 1335 1336 1338 1337 1336 1335 1333 1331 1328 1326 1323 1323 1323 1322 1320 1320 1319 1320 1321 1323 1325 1326 1328 1329 1330 1330 1330 1331 1332 1333 1335 1341 1347 1355 1363 1363 1364 1368 1372 1382 1392 1393 1394 1396 1399 1397 1394 1390 1385 1378 1370 1367 1364 1363 1362 1364 1366 1368 1370 1374 1378 1382 1387 1392 1397 1402 1407 1409 1411 1415 1419 1421 1424 1423 1422 1417 1412 1408 1403 1404 1406 1400 1394 1387 1380 1376 1372 1371 1370 1373 1376 1379 1383 1395 1408 1411 1415 1410 1405 1402 1399 1398 1397 1397 1396 1397 1398 1400 1403 1399 1395 1394 1392 1398 1405 1407 1409 1403 1396 1382 1368 1363 1357 1360 1363 1371 1379 1376 1373 1367 1361 1359 1357 1357 1357 1355 1353 1353 1354 1357 1361 1362 1364 1362 1359 1354 1349 1343 1336 1331 1326 1323 1320 1319 1318 1317 1315 1313 1311 1310 1309 1309 1308 1307 1306 1305 1304 1304 1304 1304 1303 1302 1301 1301 1300 1299 1298 1299 1300 1300 1299 1298 1297 1297 1297 1297 1297 1297 1296 1296 1295 1295 1296 1296 1296 1296 1296 1296 1296 1296 1297 1297 1296 1297 1298 1298 1298 1297 1295 1295 1294 1293 1291 1291 1292 1292 1292 1292 1292 1292 1291 1291 1291 1292 1293 1293 1292 1292 1292 1293 1294 1294 1295 1295 1294 1293 1291 1290 1289 1288 1286 1284 1282 1282 1281 1280 1279 1278 1277 1277 1277 1276 1275 1274 1273 1273 1273 1272 1271 1268 1264 1262 1259 1259 1258 1258 1258 1258 1259 1260 1261 1263 1266 1268 1270 1275 1281 1285 1290 1293 1296 1301 1306 1311 1317 1321 1326 1334 1342 1338 1333 1307 1280 1265 1249 1242 1235 1233 1231 1231 1232 1235 1238 1240 1243 1248 1254 1261 1269 1279 1290 1303 1316 1335 1355 1369 1383 1380 1377 1369 1360 1354 1348 1338 1328 1320 1312 1307 1302 1298 1294 1297 1300 1303 1307 1304 1301 1300 1298 1290 1281 1260 1238 1221 1203 1197 1191 1185 1178 1174 1170 1168 1166 1166 1166 1167 1168 1172 1177 1185 1193 1200 1207 1211 1216 1221 1226 1230 1235 1240 1245 1251 1257 1264 1271 1278 1286 1291 1297 1301 1306 1310 1314 1317 1320 1319 1318 1316 1314 1309 1304 1303 1301 1301 1301 1301 1301 1301 1301 1301 1301 1304 1308 1312 1316 1320 1325 1329 1333 1338 1343 1347 1352 1353 1355 1358 1361 1364 1367 1367 1367 1366 1365 1363 1361 1361 1360 1360 1361 1366 1371 1375 1380 1383 1386 1384 1382 1373 1363 1354 1344 1337 1329 1329 1329 1328 1326 1329 1332 1338 1345 1347 1350 1353 1357 1362 1368 1371 1374 1375 1377 1377 1376 1379 1383 1390 1397 1401 1406 1411 1416 1419 1422 1421 1419 1414 1409 1408 1406 1405 1404 1407 1411 1419 1427 1425 1422 1410 1398 1391 1383 1376 1368 1361 1354 1354 1354 1354 1354 1363 1372 1375 1378 1378 1379 1380 1382 1381 1379 1371 1363 1356 1349
1215 1222 1228 1234 1238 1243 1248 1254 1259 1264 1267 1270 1278 1287 1299 1312 1325 1339 1347 1356 1356 1356 1354 1352 1349 1345 1340 1334 1323 1311 1292 1272 1247 1221 1205 1188 1182 1176 1170 1164 1164 1164 1164 1164 1164 1164 1164 1164 1164 1164 1164 1164 1164 1164 1164 1164 1164 1164 1164 1164 1164 1164 1164 1164 1164 1164 1165 1166 1167 1169 1168 1167 1167 1168 1169 1171 1173 1176 1179 1182 1188 1195 1201 1207 1214 1221 1227 1233 1235 1237 1236 1235 1234 1233 1235 1238 1244 1250 1256 1263 1264 1265 1266 1268 1272 1276 1279 1282 1281 1280 1279 1277 1278 1280 1286 1293 1296 1299 1297 1295 1293 1291 1294 1297 1306 1315 1319 1324 1327 1330 1333 1337 1338 1339 1339 1339 1339 1338 1338 1338 1341 1344 1344 1344 1346 1349 1348 1347 1343 1339 1336 1332 1329 1325 1323 1320 1320 1321 1322 1323 1324 1325 1325 1326 1326 1326 1326 1327 1328 1329 1330 1331 1335 1340 1344 1349 1353 1357 1366 1375 1383 1392 1394 1397 1397 1398 1393 1387 1381 1375 1371 1366 1364 1361 1360 1359 1361 1364 1367 1370 1377 1384 1388 1393 1396 1399 1403 1408 1405 1402 1402 1403 1403 1403 1403 1402 1402 1401 1406 1412 1412 1413 1403 1393 1386 1378 1377 1375 1375 1375 1380 1385 1390 1396 1406 1417 1416 1415 1411 1407 1407 1406 1406 1406 1406 1405 1406 1407 1405 1403 1398 1393 1395 1398 1405 1413 1413 1413 1402 1391 1378 1365 1365 1364 1371 1379 1378 1377 1371 1364 1363 1362 1363 1364 1363 1361 1358 1354 1353 1351 1351 1351 1351 1350 1347 1343 1339 1334 1330 1326 1324 1322 1322 1322 1322 1321 1321 1320 1319 1317 1316 1314 1312 1309 1308 1307 1306 1305 1304 1303 1303 1303 1302 1301 1301 1300 1300 1300 1300 1299 1299 1299 1298 1296 1296 1296 1296 1297 1297 1296 1296 1296 1296 1297 1297 1296 1296 1296 1297 1298 1298 1299 1298 1297 1297 1296 1296 1296 1296 1295 1295 1294 1293 1292 1292 1292 1292 1293 1293 1292 1292 1292 1292 1293 1293 1293 1293 1294 1294 1294 1294 1295 1295 1295 1295 1294 1293 1291 1290 1289 1287 1285 1284 1283 1282 1281 1280 1278 1278 1277 1277 1277 1277 1276 1274 1272 1270 1268 1266 1264 1261 1258 1255 1252 1251 1250 1250 1250 1250 1251 1252 1253 1256 1260 1264 1269 1274 1279 1284 1289 1295 1301 1308 1315 1319 1324 1327 1331 1338 1345 1346 1347 1326 1304 1284 1263 1253 1242 1237 1232 1231 1229 1229 1230 1232 1234 1238 1242 1247 1252 1261 1271 1284 1298 1315 1333 1347 1361 1362 1364 1355 1346 1340 1333 1326 1319 1314 1308 1307 1305 1308 1312 1314 1317 1320 1323 1319 1314 1308 1302 1285 1268 1253 1237 1223 1209 1201 1192 1186 1180 1178 1176 1174 1171 1169 1167 1167 1167 1169 1172 1177 1182 1188 1195 1200 1205 1209 1214 1218 1223 1228 1233 1239 1245 1253 1261 1268 1276 1281 1287 1292 1297 1303 1309 1312 1315 1317 1319 1317 1314 1308 1301 1301 1301 1301 1301 1306 1312 1312 1312 1312 1313 1316 1320 1320 1321 1323 1326 1329 1333 1342 1351 1357 1363 1362 1360 1362 1365 1371 1378 1378 1379 1374 1368 1364 1360 1359 1358 1358 1359 1359 1360 1361 1363 1364 1366 1366 1365 1359 1353 1345 1336 1333 1329 1329 1329 1330 1332 1337 1343 1347 1352 1355 1359 1362 1366 1369 1373 1375 1378 1379 1381 1381 1382 1384 1387 1396 1405 1411 1417 1421 1425 1426 1428 1425 1421 1418 1414 1412 1410 1408 1406 1408 1410 1419 1429 1426 1423 1413 1402 1393 1383 1375 1366 1360 1354 1354 1354 1354 1354 1356 1359 1360 1361 1364 1368 1372 1376 1371 1366 1358 1349 1348 1346
1232 1237 1239 1242 1244 1247 1250 1253 1259 1265 1271 1277 1285 1293 1304 1315 1331 1347 1353 1360 1361 1362 1359 1356 1352 1347 1343 1338 1330 1321 1306 1291 1279 1266 1246 1225 1216 1206 1203 1200 1193 1185 1178 1170 1167 1164 1164 1164 1164 1164 1164 1164 1164 1164 1164 1164 1164 1164 1164 1164 1164 1164 1164 1164 1164 1165 1165 1166 1166 1167 1166 1165 1165 1165 1165 1165 1167 1169 1172 1176 1181 1187 1192 1198 1203 1208 1213 1218 1220 1223 1225 1228 1232 1236 1239 1242 1245 1249 1253 1257 1258 1260 1261 1263 1267 1271 1273 1276 1277 1279 1280 1281 1284 1287 1291 1296 1297 1299 1296 1293 1293 1292 1302 1313 1317 1322 1324 1327 1331 1335 1337 1339 1340 1341 1342 1343 1344 1345 1348 1351 1353 1356 1359 1363 1363 1364 1362 1359 1353 1347 1341 1335 1331 1327 1325 1323 1324 1325 1325 1324 1324 1325 1325 1325 1325 1325 1325 1325 1325 1326 1326 1327 1329 1332 1335 1339 1344 1349 1357 1366 1372 1379 1383 1388 1388 1389 1384 1378 1374 1369 1366 1362 1360 1358 1358 1358 1360 1362 1364 1366 1371 1377 1380 1383 1384 1385 1388 1391 1391 1392 1392 1393 1394 1395 1397 1399 1403 1408 1412 1416 1412 1407 1399 1390 1386 1381 1380 1378 1381 1385 1395 1405 1410 1415 1415 1415 1415 1415 1414 1412 1410 1408 1408 1408 1411 1415 1414 1412 1406 1400 1397 1393 1397 1402 1407 1412 1409 1406 1396 1385 1375 1365 1371 1378 1382 1386 1379 1371 1369 1367 1368 1370 1370 1370 1366 1362 1358 1353 1350 1347 1346 1344 1343 1341 1339 1336 1333 1329 1327 1324 1324 1323 1323 1323 1323 1323 1323 1322 1321 1319 1318 1316 1314 1311 1309 1307 1307 1306 1305 1304 1304 1303 1303 1303 1303 1302 1302 1301 1300 1299 1298 1296 1296 1297 1297 1297 1297 1297 1296 1295 1295 1296 1296 1296 1297 1298 1298 1297 1297 1297 1298 1299 1299 1299 1299 1298 1298 1297 1297 1297 1297 1297 1297 1296 1295 1294 1294 1293 1293 1294 1294 1295 1295 1295 1295 1295 1295 1295 1296 1298 1298 1297 1296 1295 1295 1295 1295 1294 1292 1289 1288 1286 1285 1284 1283 1281 1280 1279 1279 1278 1278 1278 1276 1274 1273 1271 1269 1266 1263 1260 1257 1253 1250 1247 1246 1245 1245 1245 1245 1244 1245 1247 1251 1255 1260 1265 1268 1272 1277 1282 1289 1297 1304 1312 1318 1324 1329 1334 1342 1350 1352 1355 1342 1329 1300 1271 1257 1243 1238 1233 1229 1224 1224 1224 1224 1225 1226 1228 1233 1238 1246 1254 1268 1282 1295 1309 1319 1329 1332 1336 1332 1327 1324 1320 1320 1320 1319 1318 1320 1322 1328 1334 1334 1334 1337 1340 1340 1339 1333 1326 1307 1287 1268 1249 1235 1221 1210 1198 1193 1187 1186 1184 1181 1178 1174 1170 1168 1165 1166 1167 1170 1174 1178 1183 1189 1195 1200 1205 1210 1215 1220 1226 1232 1238 1246 1255 1263 1272 1279 1286 1292 1299 1306 1314 1318 1322 1318 1314 1308 1301 1301 1301 1301 1301 1302 1303 1307 1311 1316 1322 1328 1334 1338 1342 1342 1341 1336 1331 1334 1338 1347 1357 1366 1375 1375 1374 1381 1388 1394 1400 1398 1396 1388 1380 1375 1369 1368 1366 1371 1377 1374 1371 1364 1357 1355 1353 1351 1349 1346 1342 1338 1334 1332 1329 1329 1329 1335 1341 1347 1354 1362 1370 1376 1382 1388 1394 1393 1392 1394 1396 1393 1389 1390 1392 1393 1394 1400 1406 1412 1418 1423 1428 1428 1429 1419 1409 1403 1396 1393 1390 1393 1397 1403 1409 1417 1425 1417 1408 1400 1392 1383 1374 1368 1362 1358 1354 1354 1354 1354 1354 1354 1354 1356 1358 1362 1366 1365 1363 1357 1351 1348 1344 1345 1347
1246 1249 1251 1253 1255 1258 1262 1267 1271 1276 1281 1286 1291 1296 1306 1316 1330 1345 1353 1362 1362 1362 1357 1351 1349 1347 1342 1337 1331 1325 1318 1310 1300 1290 1281 1272 1263 1254 1247 1239 1224 1209 1196 1182 1173 1164 1164 1164 1164 1164 1164 1164 1164 1164 1164 1164 1164 1164 1164 1164 1164 1164 1164 1164 1164 1165 1165 1165 1165 1165 1164 1163 1163 1163 1163 1163 1165 1167 1170 1174 1176 1179 1183 1188 1195 1202 1207 1213 1216 1220 1226 1233 1237 1242 1243 1244 1245 1246 1249 1253 1256 1259 1261 1263 1266 1269 1270 1272 1274 1276 1280 1284 1287 1291 1293 1295 1297 1299 1295 1290 1293 1296 1305 1315 1317 1319 1325 1331 1334 1337 1337 1336 1337 1338 1340 1343 1348 1353 1357 1361 1364 1368 1371 1374 1372 1369 1363 1357 1350 1342 1338 1334 1332 1330 1332 1334 1332 1330 1328 1325 1325 1325 1325 1324 1324 1325 1325 1325 1325 1326 1326 1325 1326 1327 1329 1331 1334 1338 1344 1351 1359 1368 1374 1381 1379 1377 1371 1365 1362 1359 1357 1355 1354 1353 1354 1355 1355 1356 1357 1359 1362 1365 1368 1371 1373 1375 1378 1382 1385 1388 1390 1392 1393 1394 1400 1406 1410 1414 1415 1416 1412 1408 1400 1391 1390 1388 1388 1389 1394 1399 1409 1420 1421 1423 1421 1419 1421 1423 1420 1417 1413 1408 1408 1408 1412 1416 1413 1409 1403 1396 1397 1398 1402 1406 1406 1406 1402 1397 1389 1381 1380 1379 1385 1391 1387 1382 1377 1372 1374 1376 1376 1376 1372 1367 1362 1357 1354 1351 1348 1345 1343 1340 1339 1338 1337 1335 1333 1330 1329 1327 1326 1325 1324 1323 1324 1325 1324 1323 1321 1319 1317 1315 1314 1312 1311 1310 1309 1307 1306 1305 1305 1305 1305 1305 1305 1304 1303 1302 1301 1300 1299 1298 1298 1298 1298 1299 1299 1299 1299 1298 1298 1298 1298 1299 1300 1302 1303 1304 1304 1303 1303 1303 1304 1305 1305 1304 1303 1301 1300 1299 1299 1299 1299 1298 1297 1295 1295 1295 1295 1295 1295 1296 1296 1297 1297 1296 1296 1297 1299 1301 1301 1301 1300 1298 1298 1298 1298 1297 1295 1293 1292 1290 1289 1287 1285 1282 1281 1279 1279 1278 1279 1280 1279 1277 1275 1272 1270 1267 1264 1260 1256 1251 1249 1246 1246 1245 1245 1244 1244 1243 1243 1243 1246 1249 1252 1255 1259 1263 1268 1274 1281 1288 1295 1303 1311 1319 1325 1332 1341 1350 1352 1354 1345 1335 1310 1285 1267 1249 1240 1231 1226 1221 1220 1218 1218 1217 1218 1220 1223 1226 1233 1240 1252 1264 1274 1284 1291 1298 1302 1307 1306 1305 1305 1306 1310 1315 1322 1329 1332 1336 1340 1345 1349 1353 1355 1357 1357 1358 1354 1350 1336 1321 1298 1275 1258 1241 1230 1219 1212 1205 1199 1193 1189 1185 1182 1178 1175 1171 1170 1168 1168 1168 1172 1176 1182 1188 1193 1199 1204 1210 1217 1225 1233 1241 1250 1259 1267 1275 1281 1287 1291 1296 1301 1306 1307 1309 1309 1308 1305 1301 1301 1301 1301 1301 1302 1304 1309 1314 1321 1329 1338 1348 1355 1363 1359 1355 1348 1341 1345 1349 1359 1370 1380 1391 1391 1392 1400 1409 1415 1421 1418 1414 1404 1394 1387 1379 1375 1371 1380 1390 1395 1400 1395 1390 1386 1382 1375 1367 1357 1347 1342 1336 1333 1329 1329 1329 1337 1345 1354 1364 1375 1386 1395 1404 1407 1410 1413 1417 1419 1421 1418 1414 1416 1419 1417 1415 1409 1402 1400 1398 1401 1404 1404 1405 1399 1393 1385 1377 1375 1372 1377 1383 1392 1402 1407 1412 1405 1398 1397 1396 1386 1375 1367 1359 1357 1354 1354 1354 1354 1354 1354 1354 1355 1357 1357 1357 1354 1351 1348 1345 1345 1345 1348 1352
1258 1261 1261 1262 1266 1271 1276 1282 1284 1286 1289 1293 1297 1302 1311 1321 1331 1342 1350 1359 1359 1360 1355 1349 1347 1345 1340 1335 1336 1337 1339 1341 1329 1316 1307 1298 1297 1296 1287 1277 1255 1233 1218 1203 1192 1181 1173 1164 1164 1164 1164 1164 1164 1164 1164 1164 1164 1164 1164 1163 1163 1164 1164 1164 1163 1162 1162 1163 1163 1163 1163 1163 1163 1162 1163 1164 1165 1167 1169 1171 1174 1177 1182 1187 1192 1198 1201 1205 1209 1214 1221 1229 1234 1240 1241 1243 1245 1247 1253 1259 1263 1268 1270 1272 1272 1272 1272 1272 1274 1276 1280 1284 1285 1286 1286 1287 1287 1288 1286 1284 1290 1296 1302 1308 1310 1312 1318 1324 1326 1329 1331 1333 1336 1339 1343 1348 1355 1362 1367 1372 1372 1373 1374 1376 1372 1368 1360 1352 1346 1339 1337 1334 1334 1333 1334 1336 1334 1331 1329 1326 1326 1325 1325 1324 1324 1325 1325 1325 1325 1326 1326 1325 1325 1326 1326 1326 1328 1330 1334 1338 1344 1351 1354 1357 1356 1355 1353 1351 1350 1349 1349 1350 1350 1349 1349 1350 1350 1351 1354 1357 1359 1361 1363 1366 1368 1371 1373 1375 1378 1382 1385 1389 1393 1397 1405 1413 1416 1420 1420 1420 1415 1409 1404 1398 1400 1402 1404 1407 1407 1406 1410 1415 1417 1419 1420 1422 1422 1422 1418 1414 1410 1406 1407 1408 1409 1411 1406 1401 1399 1396 1402 1408 1409 1410 1406 1402 1396 1390 1387 1383 1390 1397 1398 1399 1390 1381 1380 1379 1379 1380 1376 1372 1367 1361 1358 1354 1352 1350 1347 1344 1343 1341 1340 1338 1337 1336 1335 1333 1332 1330 1329 1327 1327 1326 1326 1325 1324 1322 1320 1318 1317 1315 1314 1313 1311 1309 1308 1306 1306 1305 1305 1305 1305 1305 1305 1304 1303 1302 1302 1301 1301 1300 1300 1300 1300 1301 1302 1304 1304 1305 1305 1305 1305 1305 1308 1312 1315 1318 1316 1314 1314 1314 1314 1315 1313 1310 1308 1306 1305 1304 1303 1301 1299 1297 1297 1297 1297 1297 1297 1296 1296 1297 1297 1298 1298 1297 1298 1299 1301 1303 1303 1303 1303 1303 1303 1303 1302 1301 1299 1297 1296 1294 1293 1291 1289 1286 1285 1283 1283 1284 1286 1288 1287 1286 1282 1278 1274 1270 1267 1264 1261 1258 1255 1251 1250 1248 1247 1245 1244 1242 1242 1241 1241 1241 1243 1245 1248 1252 1257 1262 1269 1276 1284 1292 1300 1308 1316 1324 1329 1335 1337 1339 1330 1320 1303 1285 1270 1255 1244 1232 1227 1222 1219 1215 1212 1209 1210 1212 1215 1218 1223 1228 1236 1244 1253 1263 1270 1278 1283 1289 1293 1297 1302 1308 1315 1323 1333 1343 1346 1349 1354 1359 1362 1365 1366 1367 1366 1365 1361 1357 1349 1340 1322 1304 1284 1263 1249 1235 1228 1220 1213 1206 1202 1197 1194 1191 1187 1183 1179 1175 1173 1171 1171 1171 1177 1184 1190 1197 1203 1210 1219 1228 1241 1254 1266 1278 1285 1292 1295 1298 1299 1301 1301 1300 1300 1301 1301 1301 1301 1301 1301 1301 1303 1305 1309 1314 1319 1325 1336 1348 1359 1370 1376 1383 1379 1374 1368 1362 1359 1356 1366 1376 1390 1404 1404 1403 1403 1402 1407 1412 1408 1404 1398 1392 1386 1379 1373 1367 1374 1382 1394 1407 1409 1412 1407 1401 1387 1372 1360 1348 1342 1335 1332 1329 1329 1329 1335 1342 1351 1361 1372 1384 1395 1406 1413 1421 1424 1427 1430 1433 1431 1429 1428 1426 1426 1426 1419 1412 1407 1402 1394 1386 1382 1377 1373 1369 1365 1361 1361 1360 1365 1370 1378 1387 1390 1393 1391 1389 1387 1385 1377 1368 1361 1354 1354 1354 1354 1354 1354 1354 1354 1355 1355 1355 1354 1353 1351 1348 1347 1345 1347 1350 1354 1359
1266 1269 1272 1276 1281 1286 1289 1292 1293 1294 1298 1302 1306 1310 1318 1326 1332 1338 1341 1345 1346 1347 1344 1340 1339 1338 1336 1333 1338 1343 1347 1352 1347 1341 1331 1321 1322 1323 1318 1312 1287 1261 1243 1225 1212 1199 1188 1177 1171 1164 1164 1164 1164 1164 1164 1164 1164 1163 1163 1163 1163 1164 1164 1163 1163 1164 1165 1166 1166 1165 1164 1163 1163 1164 1164 1165 1165 1165 1167 1170 1173 1177 1181 1185 1188 1192 1194 1197 1205 1213 1221 1230 1235 1240 1241 1243 1247 1252 1260 1269 1274 1279 1280 1282 1281 1280 1278 1276 1276 1277 1279 1281 1280 1279 1280 1281 1280 1279 1280 1281 1287 1294 1297 1300 1303 1306 1313 1320 1324 1328 1330 1332 1337 1343 1350 1357 1363 1369 1371 1374 1374 1375 1373 1371 1365 1359 1354 1348 1345 1342 1339 1336 1336 1336 1336 1335 1334 1332 1330 1328 1327 1326 1326 1326 1326 1327 1327 1326 1326 1325 1325 1325 1325 1325 1325 1325 1326 1327 1329 1332 1335 1338 1339 1341 1342 1343 1343 1344 1344 1345 1346 1347 1349 1351 1351 1351 1351 1351 1353 1356 1358 1361 1364 1367 1369 1371 1373 1376 1378 1381 1384 1388 1395 1402 1407 1413 1417 1421 1420 1419 1413 1406 1407 1409 1417 1426 1426 1427 1423 1419 1421 1424 1426 1428 1427 1425 1421 1416 1413 1410 1410 1410 1411 1413 1409 1405 1401 1397 1402 1407 1413 1420 1418 1416 1410 1403 1397 1390 1390 1391 1395 1400 1398 1396 1390 1383 1381 1378 1377 1375 1371 1366 1364 1361 1361 1360 1358 1356 1353 1350 1349 1348 1346 1343 1342 1340 1339 1337 1336 1334 1332 1330 1330 1329 1328 1326 1324 1321 1320 1319 1318 1316 1315 1313 1310 1307 1306 1305 1305 1305 1305 1304 1304 1305 1305 1304 1303 1302 1302 1302 1303 1304 1304 1304 1306 1308 1310 1312 1312 1313 1313 1312 1313 1315 1318 1322 1324 1327 1326 1325 1324 1323 1323 1323 1320 1316 1315 1313 1311 1308 1306 1303 1300 1297 1297 1296 1296 1297 1297 1297 1297 1298 1298 1299 1299 1298 1299 1301 1304 1307 1307 1308 1308 1309 1309 1308 1307 1305 1304 1303 1302 1300 1298 1295 1294 1292 1291 1289 1291 1294 1295 1296 1295 1294 1291 1287 1282 1277 1274 1271 1267 1263 1260 1256 1254 1252 1251 1249 1247 1244 1243 1241 1240 1239 1239 1238 1239 1241 1245 1249 1254 1260 1266 1272 1278 1284 1289 1295 1301 1307 1308 1309 1299 1289 1279 1268 1258 1248 1240 1232 1225 1218 1214 1209 1207 1204 1204 1204 1206 1208 1213 1218 1224 1231 1239 1248 1258 1268 1276 1285 1297 1309 1318 1327 1331 1336 1341 1346 1351 1357 1367 1377 1379 1381 1376 1370 1365 1359 1352 1344 1336 1328 1319 1310 1294 1278 1264 1249 1242 1234 1228 1221 1217 1212 1209 1205 1200 1195 1190 1184 1179 1174 1173 1172 1177 1183 1188 1194 1201 1209 1220 1232 1249 1266 1280 1294 1304 1314 1319 1324 1322 1319 1316 1312 1308 1304 1303 1301 1301 1301 1301 1301 1306 1312 1318 1325 1331 1338 1348 1358 1366 1375 1380 1385 1384 1383 1378 1372 1367 1362 1369 1377 1390 1403 1403 1403 1401 1399 1404 1410 1404 1398 1389 1379 1374 1369 1364 1358 1360 1363 1370 1378 1383 1388 1383 1377 1365 1353 1345 1337 1333 1329 1329 1329 1329 1329 1333 1337 1344 1352 1360 1369 1376 1384 1392 1400 1407 1415 1421 1427 1426 1425 1424 1422 1421 1420 1418 1415 1409 1403 1394 1384 1375 1366 1362 1358 1357 1356 1355 1354 1355 1357 1360 1364 1366 1369 1369 1370 1368 1365 1361 1357 1356 1354 1354 1354 1354 1354 1354 1355 1357 1360 1362 1365 1364 1362 1358 1354 1355 1356 1360 1364 1365 1367
1277 1281 1286 1291 1295 1299 1302 1305 1307 1309 1312 1315 1318 1322 1324 1327 1329 1331 1332 1334 1333 1332 1332 1331 1332 1333 1333 1332 1335 1339 1343 1347 1347 1346 1344 1341 1340 1339 1333 1326 1321 1315 1288 1260 1242 1223 1209 1194 1185 1175 1170 1164 1164 1164 1164 1164 1165 1166 1166 1166 1166 1166 1167 1168 1169 1170 1171 1172 1170 1168 1166 1164 1164 1164 1164 1164 1164 1163 1165 1167 1170 1174 1178 1182 1185 1188 1191 1194 1202 1210 1217 1224 1228 1233 1238 1244 1249 1255 1263 1272 1275 1279 1283 1288 1286 1284 1282 1279 1280 1281 1280 1278 1277 1276 1276 1276 1276 1276 1277 1279 1286 1293 1294 1296 1302 1308 1315 1323 1325 1328 1331 1334 1339 1344 1353 1362 1364 1366 1364 1362 1363 1364 1361 1358 1356 1354 1352 1350 1347 1343 1342 1340 1340 1341 1338 1335 1334 1332 1331 1329 1328 1326 1327 1329 1329 1328 1327 1326 1325 1324 1324 1324 1324 1325 1325 1325 1326 1328 1329 1331 1333 1335 1336 1338 1339 1341 1343 1345 1347 1349 1352 1355 1355 1356 1355 1353 1353 1352 1353 1354 1356 1359 1361 1364 1367 1371 1375 1379 1382 1385 1388 1391 1397 1404 1408 1412 1413 1414 1413 1411 1410 1409 1418 1428 1432 1436 1432 1427 1427 1427 1435 1444 1441 1438 1431 1424 1420 1416 1418 1420 1419 1417 1414 1411 1406 1400 1400 1400 1408 1416 1419 1423 1419 1414 1408 1401 1398 1394 1394 1395 1397 1400 1399 1397 1390 1383 1381 1379 1378 1377 1375 1372 1371 1369 1369 1369 1366 1363 1361 1358 1357 1356 1354 1352 1351 1349 1346 1343 1341 1338 1335 1332 1331 1329 1328 1326 1323 1320 1319 1318 1316 1314 1312 1310 1308 1306 1306 1305 1305 1305 1305 1304 1305 1306 1306 1305 1305 1306 1306 1307 1308 1310 1311 1312 1313 1315 1317 1319 1321 1323 1323 1323 1324 1326 1327 1329 1331 1333 1333 1334 1335 1336 1334 1332 1327 1322 1321 1319 1317 1314 1310 1305 1303 1300 1299 1297 1298 1299 1299 1299 1300 1301 1301 1301 1300 1299 1300 1301 1305 1309 1311 1314 1314 1315 1315 1314 1314 1314 1313 1311 1309 1307 1305 1303 1302 1301 1300 1299 1300 1301 1302 1303 1303 1302 1299 1296 1293 1290 1287 1283 1281 1278 1274 1269 1266 1262 1260 1257 1253 1249 1247 1244 1242 1240 1238 1235 1234 1232 1233 1235 1238 1241 1244 1248 1250 1253 1255 1257 1259 1262 1262 1263 1258 1253 1248 1242 1237 1231 1226 1220 1216 1212 1208 1204 1202 1200 1199 1198 1198 1199 1203 1208 1215 1222 1231 1241 1252 1263 1274 1285 1298 1312 1325 1338 1344 1351 1354 1357 1360 1363 1366 1369 1372 1375 1367 1359 1351 1343 1339 1334 1330 1325 1318 1311 1296 1280 1267 1254 1250 1246 1244 1241 1235 1228 1223 1218 1211 1203 1195 1186 1179 1172 1172 1173 1178 1184 1189 1194 1201 1209 1222 1235 1251 1267 1284 1301 1314 1327 1335 1343 1341 1339 1333 1326 1318 1310 1306 1301 1301 1302 1305 1308 1314 1321 1330 1340 1349 1359 1365 1372 1374 1377 1379 1382 1383 1385 1379 1372 1369 1366 1373 1380 1387 1394 1392 1389 1389 1389 1393 1397 1394 1391 1388 1384 1377 1370 1363 1355 1350 1345 1346 1347 1348 1349 1347 1345 1341 1336 1333 1329 1329 1329 1329 1329 1329 1329 1329 1329 1336 1343 1351 1359 1366 1374 1380 1387 1393 1399 1407 1415 1417 1419 1419 1418 1417 1415 1412 1409 1401 1392 1382 1371 1364 1357 1356 1355 1355 1354 1354 1353 1353 1354 1354 1355 1355 1356 1356 1357 1357 1356 1355 1354 1354 1354 1354 1354 1354 1355 1357 1360 1365 1371 1371 1371 1368 1365 1366 1367 1371 1375 1379 1384 1384 1383
1298 1307 1312 1317 1319 1321 1322 1323 1324 1325 1329 1333 1338 1343 1342 1340 1336 1332 1332 1333 1333 1332 1331 1330 1331 1332 1334 1337 1339 1341 1344 1348 1351 1354 1354 1354 1352 1350 1347 1343 1338 1333 1320 1306 1280 1254 1236 1217 1205 1192 1186 1180 1178 1175 1176 1177 1177 1176 1176 1175 1175 1174 1175 1176 1178 1180 1180 1180 1176 1172 1168 1164 1164 1164 1164 1163 1163 1164 1166 1168 1170 1172 1176 1181 1185 1189 1193 1197 1202 1208 1213 1218 1225 1232 1238 1245 1250 1256 1264 1272 1276 1281 1285 1289 1288 1286 1283 1279 1280 1282 1280 1278 1277 1276 1276 1275 1275 1275 1276 1277 1281 1286 1289 1292 1300 1308 1317 1327 1330 1333 1333 1333 1338 1343 1349 1355 1355 1355 1355 1354 1353 1351 1349 1347 1348 1350 1348 1346 1343 1339 1340 1342 1343 1345 1342 1339 1337 1334 1334 1333 1331 1328 1328 1329 1328 1327 1327 1326 1326 1326 1326 1325 1326 1327 1327 1328 1330 1332 1333 1334 1335 1337 1338 1340 1342 1345 1347 1350 1350 1351 1352 1354 1354 1355 1355 1354 1354 1355 1356 1357 1358 1360 1363 1367 1370 1374 1377 1380 1383 1387 1390 1393 1396 1400 1402 1404 1405 1406 1407 1409 1414 1419 1426 1434 1431 1427 1427 1428 1432 1437 1441 1445 1440 1434 1429 1424 1426 1429 1428 1427 1421 1415 1410 1404 1403 1402 1406 1410 1415 1420 1420 1420 1411 1402 1401 1399 1400 1401 1401 1401 1403 1406 1400 1394 1390 1385 1386 1387 1386 1384 1383 1381 1380 1379 1377 1374 1372 1369 1367 1364 1364 1363 1363 1363 1359 1355 1351 1347 1344 1340 1336 1332 1330 1328 1326 1323 1320 1317 1316 1314 1312 1310 1308 1306 1306 1305 1305 1306 1306 1306 1306 1305 1305 1305 1306 1307 1309 1312 1313 1314 1316 1319 1322 1326 1327 1328 1329 1330 1332 1335 1336 1337 1337 1338 1338 1338 1339 1341 1342 1344 1344 1344 1340 1336 1332 1328 1327 1325 1322 1318 1313 1307 1305 1303 1301 1299 1300 1301 1301 1302 1302 1301 1301 1301 1300 1299 1302 1305 1308 1312 1314 1316 1317 1319 1321 1323 1323 1323 1321 1319 1318 1316 1315 1314 1313 1312 1313 1314 1314 1315 1315 1314 1313 1312 1309 1306 1305 1303 1301 1298 1295 1292 1287 1282 1279 1276 1271 1266 1260 1254 1250 1246 1244 1241 1238 1235 1233 1230 1228 1225 1226 1227 1229 1232 1233 1235 1235 1234 1234 1234 1234 1233 1231 1229 1225 1221 1218 1214 1210 1206 1203 1200 1199 1197 1197 1196 1195 1194 1195 1196 1198 1201 1207 1213 1221 1230 1241 1253 1265 1277 1289 1302 1316 1330 1338 1347 1350 1354 1359 1364 1362 1359 1358 1357 1356 1354 1350 1345 1343 1341 1336 1330 1320 1309 1294 1278 1275 1271 1271 1272 1269 1265 1256 1247 1233 1218 1206 1194 1188 1181 1177 1172 1173 1175 1180 1185 1190 1195 1202 1209 1219 1230 1246 1262 1282 1302 1316 1331 1338 1346 1345 1344 1333 1321 1312 1303 1302 1301 1303 1305 1310 1315 1323 1331 1340 1349 1361 1373 1378 1383 1382 1381 1378 1374 1374 1373 1370 1366 1366 1366 1369 1372 1374 1377 1377 1378 1379 1381 1386 1392 1400 1408 1403 1398 1388 1377 1366 1355 1348 1341 1341 1342 1340 1338 1336 1333 1331 1329 1329 1329 1329 1329 1329 1329 1329 1329 1329 1329 1333 1337 1343 1350 1355 1361 1366 1372 1378 1384 1390 1396 1399 1403 1402 1400 1399 1398 1398 1399 1392 1385 1375 1365 1360 1355 1355 1354 1354 1353 1353 1353 1355 1357 1357 1358 1357 1355 1355 1354 1354 1354 1354 1354 1354 1354 1354 1354 1356 1358 1364 1371 1374 1378 1375 1371 1373 1376 1382 1388 1394 1401 1405 1409 1404 1398
1326 1336 1340 1345 1346 1347 1346 1345 1343 1341 1345 1349 1355 1362 1361 1359 1352 1345 1342 1339 1339 1339 1337 1335 1335 1336 1342 1348 1349 1351 1353 1356 1359 1363 1363 1364 1362 1360 1353 1345 1337 1329 1323 1316 1300 1283 1264 1245 1229 1212 1205 1198 1197 1195 1195 1195 1193 1190 1190 1190 1190 1189 1190 1192 1192 1193 1192 1191 1184 1177 1172 1167 1166 1164 1164 1164 1164 1163 1164 1166 1167 1168 1172 1177 1183 1190 1193 1197 1202 1207 1212 1217 1223 1230 1236 1243 1250 1258 1265 1272 1275 1278 1281 1285 1285 1284 1281 1277 1278 1280 1280 1279 1277 1274 1275 1276 1276 1276 1276 1276 1278 1280 1287 1295 1302 1310 1317 1324 1329 1334 1334 1335 1339 1343 1346 1350 1349 1347 1347 1347 1344 1340 1338 1336 1337 1339 1339 1339 1338 1336 1338 1341 1342 1344 1342 1340 1339 1338 1335 1332 1330 1328 1328 1328 1328 1328 1328 1328 1328 1327 1328 1330 1331 1332 1332 1333 1335 1338 1339 1340 1340 1339 1340 1342 1345 1348 1350 1352 1352 1353 1354 1356 1356 1357 1358 1359 1360 1361 1364 1367 1369 1372 1375 1379 1382 1386 1390 1394 1394 1393 1393 1392 1394 1396 1397 1398 1400 1402 1404 1406 1415 1424 1429 1435 1436 1437 1440 1444 1441 1438 1436 1434 1433 1432 1434 1437 1437 1438 1431 1424 1415 1406 1404 1401 1405 1409 1413 1417 1420 1423 1417 1410 1406 1401 1405 1410 1409 1408 1408 1408 1407 1405 1399 1393 1394 1396 1398 1400 1398 1395 1392 1388 1385 1381 1379 1377 1375 1373 1371 1369 1369 1369 1368 1367 1363 1359 1354 1348 1343 1337 1334 1330 1327 1324 1321 1318 1316 1313 1311 1309 1308 1306 1305 1304 1304 1305 1305 1306 1306 1305 1305 1305 1305 1305 1307 1309 1312 1315 1318 1321 1324 1328 1331 1335 1337 1339 1340 1342 1342 1342 1344 1346 1347 1349 1349 1350 1352 1354 1356 1358 1354 1350 1346 1342 1339 1335 1332 1328 1326 1323 1317 1311 1308 1305 1304 1303 1303 1303 1303 1302 1301 1300 1300 1300 1300 1301 1304 1308 1311 1315 1317 1319 1323 1327 1329 1331 1330 1328 1327 1326 1325 1324 1324 1324 1326 1329 1330 1331 1331 1330 1327 1324 1322 1320 1319 1317 1316 1314 1313 1312 1312 1311 1306 1301 1296 1290 1283 1275 1268 1261 1256 1251 1248 1245 1242 1238 1234 1230 1227 1223 1222 1221 1222 1223 1223 1224 1224 1224 1223 1221 1220 1218 1216 1214 1212 1209 1206 1202 1200 1198 1196 1194 1193 1192 1191 1190 1190 1189 1190 1191 1193 1195 1199 1203 1210 1217 1229 1241 1253 1266 1278 1290 1303 1316 1324 1333 1341 1349 1357 1365 1365 1365 1361 1357 1357 1358 1355 1352 1341 1330 1321 1312 1303 1294 1288 1281 1282 1283 1274 1264 1252 1240 1229 1218 1209 1199 1192 1185 1181 1176 1174 1172 1174 1177 1181 1186 1191 1197 1203 1209 1218 1228 1244 1260 1281 1302 1318 1335 1341 1347 1340 1333 1322 1310 1306 1301 1302 1304 1306 1309 1313 1317 1322 1328 1336 1344 1355 1366 1368 1371 1371 1370 1367 1363 1363 1363 1363 1363 1364 1365 1368 1372 1377 1383 1388 1394 1392 1390 1390 1389 1398 1407 1403 1398 1388 1378 1368 1358 1352 1345 1349 1353 1352 1351 1346 1341 1338 1334 1332 1329 1329 1329 1329 1329 1329 1329 1329 1329 1329 1329 1336 1343 1346 1350 1353 1357 1361 1365 1369 1373 1376 1380 1380 1381 1381 1380 1379 1377 1372 1366 1362 1358 1357 1355 1355 1354 1354 1354 1354 1354 1356 1359 1359 1359 1359 1358 1357 1356 1355 1354 1354 1354 1354 1354 1354 1354 1358 1362 1367 1373 1375 1377 1377 1377 1384 1391 1402 1413 1419 1425 1425 1425 1418 1410
1352 1365 1378 1391 1389 1387 1379 1370 1365 1359 1361 1363 1368 1373 1374 1376 1368 1360 1351 1342 1340 1338 1338 1339 1341 1344 1352 1360 1363 1366 1365 1363 1363 1363 1364 1366 1363 1359 1353 1347 1342 1336 1330 1323 1311 1298 1279 1259 1246 1232 1227 1221 1221 1222 1219 1215 1212 1209 1208 1207 1207 1206 1208 1211 1212 1214 1211 1208 1199 1189 1182 1175 1171 1167 1166 1164 1164 1163 1163 1163 1163 1164 1169 1174 1180 1186 1190 1195 1200 1205 1210 1215 1221 1227 1235 1243 1250 1257 1263 1270 1272 1274 1276 1279 1279 1280 1277 1274 1275 1277 1277 1276 1276 1275 1275 1275 1275 1276 1276 1275 1278 1282 1290 1298 1305 1312 1317 1322 1327 1333 1336 1339 1342 1345 1346 1348 1344 1340 1338 1335 1332 1329 1329 1328 1327 1325 1325 1324 1328 1332 1335 1338 1338 1339 1339 1338 1336 1334 1331 1328 1328 1327 1328 1329 1330 1332 1332 1332 1332 1333 1335 1338 1339 1340 1339 1337 1338 1339 1340 1341 1342 1344 1344 1344 1346 1349 1351 1354 1354 1355 1355 1355 1356 1358 1361 1365 1369 1373 1375 1377 1378 1379 1381 1383 1388 1394 1398 1402 1400 1398 1395 1392 1392 1393 1393 1394 1396 1398 1402 1406 1414 1422 1428 1435 1438 1441 1439 1437 1435 1432 1433 1435 1438 1442 1443 1445 1441 1436 1425 1413 1407 1400 1402 1404 1410 1416 1417 1418 1417 1415 1409 1403 1405 1407 1410 1413 1414 1416 1416 1415 1410 1405 1404 1402 1408 1415 1413 1410 1404 1398 1393 1388 1384 1380 1379 1377 1376 1374 1372 1370 1370 1371 1371 1371 1368 1364 1357 1350 1343 1336 1333 1330 1327 1324 1320 1315 1312 1309 1308 1306 1306 1305 1305 1305 1305 1305 1305 1305 1305 1305 1305 1306 1307 1308 1311 1314 1318 1323 1326 1329 1332 1336 1339 1342 1345 1348 1349 1351 1351 1352 1355 1359 1360 1362 1362 1361 1364 1368 1367 1365 1362 1358 1354 1349 1344 1339 1336 1332 1332 1332 1326 1319 1315 1310 1308 1306 1306 1307 1307 1306 1305 1303 1302 1301 1302 1303 1307 1312 1314 1317 1319 1322 1325 1329 1332 1335 1336 1337 1337 1337 1336 1335 1336 1337 1339 1342 1342 1342 1342 1341 1339 1337 1333 1329 1328 1327 1328 1330 1329 1328 1326 1324 1320 1315 1307 1299 1292 1284 1278 1272 1266 1260 1256 1251 1249 1246 1241 1236 1232 1228 1227 1225 1223 1220 1220 1220 1220 1219 1218 1216 1214 1212 1210 1207 1205 1203 1200 1196 1194 1191 1190 1188 1188 1187 1187 1186 1186 1186 1186 1187 1189 1191 1193 1196 1202 1208 1218 1228 1240 1252 1264 1276 1289 1302 1317 1332 1345 1358 1364 1370 1366 1361 1358 1355 1348 1340 1339 1337 1326 1314 1301 1288 1282 1275 1271 1267 1262 1257 1245 1233 1223 1213 1206 1198 1191 1184 1181 1177 1175 1173 1173 1173 1176 1180 1185 1190 1194 1199 1204 1210 1219 1229 1245 1261 1280 1300 1314 1329 1332 1335 1330 1324 1316 1307 1308 1309 1310 1311 1315 1320 1320 1321 1322 1324 1328 1333 1340 1348 1353 1358 1363 1369 1372 1376 1374 1371 1369 1366 1368 1370 1372 1375 1380 1385 1392 1399 1395 1391 1384 1376 1381 1387 1383 1379 1372 1365 1361 1357 1351 1345 1349 1354 1353 1352 1347 1342 1339 1335 1332 1329 1329 1329 1329 1329 1329 1329 1329 1329 1329 1329 1332 1335 1339 1343 1346 1349 1352 1355 1359 1363 1366 1370 1372 1375 1376 1377 1375 1372 1368 1363 1362 1360 1359 1357 1356 1355 1355 1356 1358 1360 1361 1362 1360 1358 1358 1357 1357 1356 1355 1354 1354 1354 1354 1355 1355 1355 1360 1365 1371 1377 1380 1384 1389 1395 1401 1408 1417 1426 1432 1439 1436 1433 1426 1418
1400 1419 1430 1441 1445 1450 1448 1445 1430 1414 1398 1381 1379 1377 1377 1376 1373 1370 1362 1354 1348 1342 1343 1345 1348 1351 1356 1361 1365 1370 1369 1367 1367 1368 1370 1372 1369 1366 1364 1362 1360 1357 1345 1332 1314 1295 1278 1261 1252 1243 1241 1239 1238 1237 1237 1236 1233 1230 1226 1221 1222 1223 1228 1234 1241 1248 1241 1233 1213 1193 1187 1180 1174 1168 1166 1164 1164 1163 1163 1162 1162 1163 1166 1169 1174 1180 1185 1191 1196 1201 1207 1214 1220 1227 1234 1242 1250 1258 1262 1267 1269 1272 1274 1276 1276 1276 1275 1274 1274 1275 1275 1275 1275 1275 1276 1278 1278 1279 1279 1278 1281 1284 1290 1296 1301 1307 1310 1313 1317 1322 1327 1333 1334 1335 1333 1331 1329 1327 1326 1324 1324 1324 1321 1317 1312 1307 1308 1309 1316 1323 1324 1326 1326 1327 1329 1331 1331 1332 1330 1327 1327 1327 1329 1332 1333 1334 1335 1336 1338 1341 1343 1346 1346 1345 1343 1340 1340 1340 1340 1341 1343 1345 1345 1344 1345 1347 1349 1352 1353 1355 1355 1356 1359 1362 1365 1369 1371 1374 1376 1378 1378 1378 1379 1381 1383 1386 1388 1391 1392 1393 1393 1392 1392 1391 1392 1393 1396 1399 1403 1408 1413 1418 1422 1426 1427 1429 1429 1428 1432 1436 1438 1441 1441 1442 1440 1437 1431 1424 1415 1406 1405 1404 1409 1415 1421 1428 1425 1421 1414 1406 1405 1403 1405 1407 1413 1419 1421 1424 1421 1417 1411 1405 1410 1416 1420 1424 1418 1411 1407 1402 1394 1385 1381 1377 1377 1377 1376 1375 1375 1375 1379 1384 1384 1384 1379 1373 1364 1355 1347 1338 1334 1329 1325 1321 1316 1310 1308 1306 1305 1304 1305 1306 1306 1305 1305 1304 1304 1305 1305 1306 1307 1308 1311 1315 1319 1323 1328 1333 1336 1340 1342 1344 1347 1350 1353 1356 1357 1359 1360 1361 1363 1366 1367 1369 1370 1371 1372 1373 1372 1370 1368 1365 1362 1358 1352 1346 1343 1339 1340 1341 1336 1331 1324 1317 1315 1313 1314 1315 1314 1312 1309 1305 1305 1304 1306 1309 1316 1324 1326 1328 1328 1329 1331 1333 1335 1338 1340 1343 1345 1348 1348 1348 1348 1348 1348 1349 1351 1353 1353 1354 1352 1349 1344 1339 1337 1335 1338 1341 1340 1339 1334 1329 1325 1320 1315 1309 1304 1298 1293 1287 1281 1274 1269 1263 1260 1256 1253 1249 1245 1240 1238 1235 1231 1226 1223 1220 1219 1218 1217 1215 1213 1210 1208 1205 1203 1200 1197 1194 1191 1188 1187 1185 1185 1184 1184 1185 1185 1184 1184 1184 1185 1187 1189 1192 1196 1201 1208 1215 1225 1236 1248 1261 1277 1293 1309 1326 1341 1357 1356 1354 1349 1344 1344 1343 1336 1328 1321 1313 1302 1291 1279 1267 1260 1253 1248 1243 1235 1227 1219 1211 1204 1197 1191 1185 1181 1177 1176 1174 1174 1174 1177 1180 1183 1187 1189 1192 1196 1200 1206 1212 1222 1232 1246 1260 1274 1288 1298 1308 1311 1315 1312 1309 1308 1307 1310 1313 1315 1317 1324 1331 1332 1333 1333 1333 1336 1340 1348 1357 1365 1373 1383 1393 1396 1399 1392 1385 1379 1373 1372 1371 1371 1371 1377 1384 1391 1398 1393 1388 1374 1359 1359 1358 1358 1357 1353 1349 1349 1348 1347 1345 1348 1351 1351 1350 1343 1335 1332 1329 1329 1329 1329 1329 1329 1329 1329 1329 1329 1329 1329 1329 1329 1329 1334 1339 1342 1345 1349 1354 1358 1362 1367 1372 1376 1381 1382 1384 1385 1386 1383 1379 1374 1369 1366 1363 1361 1358 1359 1360 1364 1369 1367 1365 1363 1360 1359 1358 1359 1361 1361 1361 1358 1354 1354 1355 1355 1354 1356 1359 1366 1373 1382 1392 1401 1410 1416 1422 1424 1427 1431 1436 1434 1432 1428 1423
1430 1445 1448 1452 1457 1462 1467 1472 1478 1484 1470 1455 1437 1418 1406 1393 1385 1377 1371 1365 1360 1354 1353 1352 1353 1354 1354 1355 1360 1365 1368 1372 1375 1378 1383 1388 1387 1385 1385 1385 1377 1369 1351 1333 1311 1289 1278 1266 1261 1255 1255 1256 1254 1252 1252 1253 1249 1245 1241 1236 1237 1239 1249 1260 1262 1265 1254 1242 1222 1201 1192 1182 1175 1167 1165 1162 1162 1161 1161 1162 1162 1163 1164 1165 1169 1173 1180 1188 1193 1198 1205 1212 1219 1227 1234 1241 1248 1256 1259 1263 1264 1266 1266 1267 1268 1270 1272 1274 1275 1277 1278 1279 1280 1282 1284 1286 1283 1279 1279 1280 1283 1287 1288 1289 1293 1297 1300 1304 1305 1307 1309 1311 1310 1309 1308 1307 1307 1306 1308 1311 1311 1310 1307 1303 1300 1296 1298 1300 1304 1308 1310 1312 1314 1317 1322 1327 1328 1329 1327 1324 1324 1325 1326 1328 1330 1333 1337 1342 1343 1345 1345 1345 1345 1344 1343 1341 1341 1341 1341 1342 1343 1344 1344 1345 1346 1348 1351 1354 1357 1361 1363 1366 1368 1370 1371 1372 1375 1378 1379 1381 1382 1383 1385 1387 1388 1389 1389 1390 1390 1390 1390 1389 1389 1389 1389 1390 1392 1395 1399 1403 1406 1409 1412 1415 1416 1418 1421 1424 1428 1433 1433 1434 1434 1433 1430 1426 1421 1416 1413 1409 1412 1415 1422 1430 1432 1434 1426 1418 1411 1404 1405 1406 1409 1412 1418 1424 1423 1421 1415 1408 1407 1406 1414 1423 1422 1420 1411 1401 1397 1393 1386 1379 1378 1376 1378 1380 1380 1381 1382 1384 1390 1397 1397 1396 1387 1377 1365 1353 1344 1335 1330 1325 1321 1316 1312 1308 1307 1305 1305 1305 1305 1305 1305 1305 1305 1305 1305 1305 1306 1308 1311 1314 1318 1322 1327 1332 1337 1342 1345 1348 1351 1355 1357 1359 1362 1365 1366 1367 1367 1368 1370 1372 1372 1373 1373 1372 1373 1375 1374 1372 1372 1372 1368 1364 1358 1351 1350 1348 1347 1346 1342 1338 1332 1325 1322 1319 1320 1321 1318 1315 1312 1308 1308 1309 1313 1317 1326 1335 1335 1335 1335 1336 1338 1341 1342 1344 1347 1351 1355 1360 1361 1363 1363 1362 1360 1358 1358 1358 1359 1360 1358 1356 1353 1349 1347 1345 1347 1349 1348 1347 1339 1331 1326 1320 1318 1316 1314 1312 1307 1302 1294 1286 1281 1275 1274 1272 1271 1269 1263 1257 1257 1256 1250 1243 1237 1231 1229 1226 1223 1220 1218 1215 1212 1208 1205 1201 1198 1195 1193 1190 1188 1185 1184 1183 1183 1184 1184 1183 1183 1184 1185 1186 1187 1188 1190 1193 1197 1201 1211 1221 1234 1248 1263 1279 1294 1310 1321 1332 1330 1327 1326 1325 1325 1325 1322 1319 1306 1292 1281 1270 1259 1248 1241 1233 1227 1221 1215 1208 1201 1194 1189 1184 1179 1174 1173 1171 1171 1172 1175 1178 1180 1183 1186 1189 1191 1194 1198 1203 1209 1216 1226 1236 1247 1258 1267 1277 1284 1292 1295 1299 1298 1297 1301 1306 1312 1319 1327 1336 1343 1350 1349 1348 1350 1353 1359 1365 1372 1380 1386 1393 1399 1405 1407 1409 1402 1395 1392 1388 1383 1378 1374 1369 1373 1378 1381 1385 1378 1371 1360 1348 1346 1343 1343 1343 1343 1343 1343 1343 1346 1349 1349 1350 1350 1351 1343 1334 1332 1329 1329 1329 1329 1329 1329 1329 1329 1329 1329 1329 1329 1329 1329 1329 1333 1337 1340 1343 1347 1352 1356 1360 1365 1371 1379 1387 1394 1402 1401 1399 1392 1384 1377 1370 1367 1364 1363 1361 1364 1368 1373 1378 1376 1374 1369 1364 1363 1362 1362 1363 1361 1358 1358 1359 1359 1358 1357 1355 1357 1359 1366 1373 1379 1386 1393 1400 1408 1417 1422 1428 1430 1432 1432 1431 1430 1429
1433 1445 1451 1457 1459 1461 1467 1474 1480 1487 1487 1488 1476 1463 1448 1433 1417 1400 1391 1382 1379 1375 1373 1371 1367 1363 1363 1363 1365 1367 1377 1387 1389 1392 1396 1400 1398 1395 1392 1389 1376 1362 1343 1324 1309 1294 1286 1277 1274 1271 1271 1270 1265 1259 1257 1255 1254 1253 1251 1248 1250 1253 1262 1271 1271 1272 1261 1249 1235 1221 1205 1188 1177 1166 1163 1160 1160 1160 1160 1160 1161 1162 1162 1163 1166 1169 1176 1183 1188 1194 1200 1207 1214 1222 1229 1237 1244 1251 1253 1255 1255 1255 1257 1260 1267 1275 1279 1283 1283 1282 1285 1288 1291 1294 1295 1296 1291 1286 1285 1283 1284 1286 1286 1286 1287 1289 1289 1290 1291 1292 1292 1292 1293 1294 1294 1295 1296 1298 1299 1301 1301 1300 1299 1297 1296 1295 1296 1297 1300 1304 1306 1308 1312 1317 1320 1323 1323 1323 1324 1325 1326 1327 1327 1327 1329 1332 1336 1340 1341 1342 1342 1341 1341 1341 1341 1342 1343 1344 1344 1344 1345 1346 1346 1346 1348 1350 1354 1359 1364 1369 1372 1375 1375 1376 1376 1376 1380 1384 1386 1389 1392 1395 1395 1394 1394 1394 1394 1394 1394 1393 1392 1390 1390 1389 1389 1389 1390 1391 1393 1396 1399 1402 1405 1408 1412 1417 1422 1428 1428 1428 1426 1424 1422 1420 1419 1418 1418 1417 1417 1418 1426 1434 1437 1441 1435 1429 1420 1411 1407 1403 1407 1411 1417 1423 1425 1428 1422 1415 1409 1403 1405 1408 1415 1423 1416 1409 1402 1394 1388 1382 1378 1374 1375 1377 1378 1380 1383 1386 1388 1391 1399 1407 1405 1403 1389 1375 1362 1349 1340 1331 1326 1321 1316 1311 1309 1306 1305 1303 1304 1305 1305 1305 1305 1305 1305 1306 1306 1307 1309 1311 1315 1319 1324 1329 1333 1338 1343 1348 1352 1357 1360 1364 1365 1367 1369 1371 1372 1373 1375 1377 1378 1380 1379 1377 1374 1371 1371 1371 1372 1373 1374 1376 1370 1364 1361 1357 1357 1357 1354 1350 1345 1339 1334 1328 1326 1324 1324 1325 1321 1317 1314 1311 1312 1313 1317 1321 1326 1332 1333 1334 1337 1340 1345 1351 1353 1355 1357 1359 1365 1372 1373 1374 1373 1372 1369 1366 1365 1364 1363 1361 1359 1356 1354 1352 1352 1351 1353 1355 1355 1355 1348 1341 1335 1329 1327 1324 1323 1321 1316 1311 1306 1300 1295 1289 1291 1293 1296 1299 1293 1287 1287 1287 1285 1282 1271 1259 1253 1246 1242 1238 1234 1229 1225 1221 1216 1210 1205 1199 1197 1194 1191 1188 1187 1185 1184 1183 1183 1184 1184 1184 1184 1184 1185 1186 1187 1189 1191 1194 1201 1209 1220 1231 1245 1259 1272 1285 1294 1304 1304 1304 1306 1308 1310 1313 1314 1316 1298 1280 1266 1251 1240 1229 1222 1214 1209 1203 1198 1193 1188 1182 1178 1174 1174 1173 1173 1172 1173 1175 1179 1183 1185 1188 1190 1193 1195 1198 1203 1209 1217 1225 1233 1242 1251 1261 1268 1275 1279 1283 1283 1284 1287 1290 1297 1305 1316 1327 1337 1347 1351 1355 1355 1354 1361 1369 1380 1391 1397 1404 1409 1415 1417 1420 1420 1419 1413 1407 1404 1400 1394 1388 1381 1373 1373 1374 1370 1365 1358 1351 1347 1343 1343 1343 1343 1343 1343 1343 1347 1352 1351 1349 1348 1347 1347 1347 1341 1335 1332 1329 1329 1329 1329 1329 1329 1329 1329 1329 1329 1329 1329 1329 1329 1329 1332 1336 1338 1341 1345 1349 1356 1363 1368 1374 1381 1388 1393 1399 1395 1391 1384 1376 1372 1367 1366 1364 1365 1366 1369 1372 1373 1375 1373 1371 1371 1370 1371 1373 1371 1369 1365 1360 1359 1358 1358 1357 1356 1355 1359 1363 1369 1376 1381 1386 1390 1395 1403 1411 1417 1424 1424 1425 1425 1425 1426 1428
1433 1446 1453 1461 1467 1474 1479 1484 1487 1490 1492 1495 1494 1493 1482 1471 1452 1433 1414 1394 1393 1392 1393 1394 1388 1382 1379 1376 1376 1375 1383 1391 1396 1401 1401 1402 1400 1398 1394 1390 1374 1357 1340 1323 1316 1308 1301 1294 1288 1282 1280 1277 1271 1265 1265 1264 1264 1264 1262 1259 1262 1265 1268 1271 1269 1267 1261 1254 1246 1238 1216 1194 1179 1164 1162 1160 1160 1160 1160 1159 1160 1161 1161 1162 1164 1166 1171 1176 1182 1189 1195 1201 1208 1215 1221 1228 1234 1241 1242 1244 1247 1250 1257 1265 1272 1280 1282 1284 1282 1280 1285 1290 1294 1299 1297 1295 1291 1286 1286 1285 1284 1283 1283 1282 1282 1283 1283 1282 1284 1287 1290 1293 1295 1297 1299 1302 1305 1308 1308 1309 1304 1298 1296 1294 1294 1293 1294 1296 1301 1306 1309 1313 1313 1314 1316 1319 1322 1326 1327 1329 1329 1329 1330 1331 1332 1334 1335 1337 1339 1342 1342 1341 1342 1344 1344 1344 1344 1345 1346 1348 1348 1349 1349 1348 1351 1355 1360 1365 1369 1373 1376 1379 1381 1383 1383 1384 1386 1389 1393 1398 1401 1405 1409 1414 1415 1416 1412 1408 1403 1397 1394 1391 1390 1388 1388 1388 1388 1388 1390 1393 1398 1403 1406 1409 1411 1414 1417 1420 1418 1415 1414 1413 1414 1416 1417 1418 1421 1424 1428 1432 1437 1443 1441 1438 1428 1418 1412 1405 1404 1403 1412 1421 1429 1437 1435 1432 1420 1408 1404 1400 1402 1404 1407 1410 1410 1409 1402 1395 1386 1377 1374 1371 1371 1371 1372 1374 1375 1377 1381 1386 1390 1395 1396 1397 1383 1369 1356 1343 1336 1328 1322 1316 1312 1307 1305 1302 1302 1302 1303 1305 1305 1305 1305 1305 1305 1306 1308 1310 1313 1317 1321 1325 1329 1334 1340 1347 1351 1355 1359 1363 1365 1367 1369 1371 1372 1373 1374 1375 1377 1380 1380 1381 1381 1380 1378 1376 1375 1373 1375 1377 1376 1375 1370 1365 1363 1361 1360 1358 1354 1350 1345 1340 1336 1332 1331 1330 1330 1329 1324 1319 1316 1313 1313 1314 1317 1321 1325 1330 1331 1333 1339 1345 1353 1362 1363 1364 1364 1363 1365 1368 1369 1371 1371 1370 1370 1370 1369 1368 1366 1363 1361 1358 1357 1356 1356 1357 1358 1359 1360 1361 1357 1352 1345 1337 1338 1339 1339 1338 1333 1327 1321 1315 1312 1308 1309 1310 1312 1315 1313 1311 1312 1314 1314 1314 1308 1301 1295 1289 1282 1275 1266 1256 1246 1236 1230 1224 1218 1211 1207 1202 1198 1194 1191 1188 1186 1184 1184 1184 1184 1184 1184 1184 1184 1185 1185 1186 1188 1190 1194 1199 1207 1216 1228 1240 1251 1262 1270 1279 1282 1286 1290 1294 1302 1311 1312 1313 1292 1270 1252 1233 1224 1214 1208 1201 1196 1191 1186 1181 1178 1175 1174 1172 1172 1172 1173 1175 1178 1182 1184 1186 1189 1193 1195 1197 1201 1206 1212 1218 1227 1236 1245 1254 1263 1273 1280 1287 1287 1287 1286 1285 1289 1293 1301 1309 1317 1326 1333 1340 1342 1345 1348 1352 1360 1369 1378 1388 1397 1407 1413 1420 1422 1424 1419 1414 1408 1402 1402 1401 1399 1396 1390 1383 1380 1377 1370 1363 1355 1346 1345 1343 1343 1343 1343 1343 1346 1350 1351 1353 1351 1349 1348 1346 1346 1346 1342 1338 1334 1329 1329 1329 1329 1329 1329 1329 1329 1329 1329 1329 1329 1329 1329 1329 1332 1336 1339 1343 1346 1350 1355 1360 1365 1370 1374 1378 1378 1377 1374 1370 1368 1365 1365 1365 1366 1368 1370 1373 1374 1375 1372 1368 1367 1365 1368 1372 1373 1374 1369 1364 1361 1358 1359 1360 1360 1360 1360 1361 1367 1374 1380 1386 1392 1399 1403 1407 1409 1412 1412 1411 1411 1412 1413 1415 1419 1423
