ncols         754
nrows         31
xllcorner     10.4925
yllcorner     55.04
cellsize      0.00083333333333333
NODATA_value  -9999
350 353 349 345 342 338 333 328 317 306 310 315 325 335 335 334 333 332 332 332 331 329 318 306 298 290 290 289 298 308 324 340 352 364 371 379 393 407 423 439 446 454 455 457 451 445 446 447 444 440 439 438 442 446 444 442 435 428 420 412 409 405 403 400 394 388 380 372 368 363 363 363 367 371 377 384 391 399 404 409 410 412 414 416 416 415 407 398 400 402 401 399 394 388 378 368 361 353 352 350 346 342 336 330 321 312 300 287 284 281 282 284 284 283 275 266 262 258 253 247 244 241 233 224 221 218 216 214 214 214 211 207 200 192 187 182 182 183 181 179 178 176 174 171 165 159 156 152 152 153 155 158 155 152 157 162 170 178 185 192 196 201 204 207 205 203 198 192 189 185 190 195 209 223 232 242 253 265 275 285 296 307 311 316 315 313 313 312 311 310 335 361 390 419 424 430 438 447 457 467 464 461 461 462 473 484 492 501 503 505 504 503 498 493 487 481 482 484 488 492 491 490 486 481 479 477 475 472 469 465 462 458 455 452 446 439 432 424 417 409 404 398 396 394 401 408 408 409 404 399 396 392 383 374 371 368 364 360 350 339 329 319 307 295 284 273 265 257 256 254 254 255 251 246 242 237 233 229 228 227 226 225 228 231 238 245 247 250 249 248 247 245 245 244 244 244 244 243 239 234 230 226 215 203 193 183 181 178 174 169 166 163 165 167 167 168 168 168 164 160 160 161 162 163 157 151 151 151 151 151 151 151 151 151 151 151 151 151 151 151 151 151 151 151 151 151 151 151 151 151 151 151 151 151 151 151 151 151 151 151 151 151 153 155 169 183 195 207 216 226 227 228 223 218 213 208 205 202 205 208 216 224 230 236 243 250 255 260 266 272 270 268 268 268 267 266 270 275 286 297 304 311 313 315 317 319 315 310 301 292 294 297 310 323 334 345 353 362 364 367 361 354 348 342 340 338 334 329 324 319 316 312 307 302 299 296 291 285 283 280 276 271 270 269 268 267 270 273 275 278 274 270 267 264 263 262 260 258 266 274 276 278 282 287 287 287 281 275 278 282 281 279 277 275 282 290 303 316 317 319 319 318 328 338 342 347 350 353 348 343 334 324 321 317 314 311 314 317 323 330 333 336 338 341 336 331 321 310 302 293 286 279 284 290 295 300 291 282 269 255 243 230 232 235 237 239 250 262 263 265 266 268 265 262 260 258 257 256 255 253 256 259 259 259 256 253 247 241 241 242 242 241 241 240 239 237 239 241 232 222 215 208 199 190 183 175 169 162 155 148 144 139 137 134 134 135 134 132 132 133 133 133 129 125 124 123 124 125 123 121 121 121 121 121 121 120 118 116 113 109 108 106 107 108 110 112 113 114 115 117 117 117 118 120 120 120 120 121 121 120 120 120 120 121 121 122 122 121 121 120 120 120 123 127 129 132 132 133 133 132 133 135 136 137 139 141 143 146 150 155 154 152 153 154 152 150 146 142 138 134 137 141 143 146 145 143 147 152 158 164 164 164 163 162 157 152 149 146 143 140 136 132 131 130 129 128 125 122 121 120 120 119 118 116 116 115 115 114 114 115 114 113 113 113 111 109 109 109 108 107 107 107 107 107 107 107 108 110 111 112 113 114 115 116 119 123 131 140 147 155 163 171 180 189 195 201 202 204 205 206 206 205 205 206 211 216 220 224 218 212 209 206 206 205
350 352 351 349 347 344 337 329 317 305 307 309 321 333 331 328 325 321 317 312 307 301 295 288 285 281 286 291 297 303 320 337 348 359 365 371 382 394 405 417 423 430 434 439 436 433 433 433 429 424 425 427 428 429 426 423 416 409 405 400 399 398 395 391 386 381 376 370 365 360 357 353 354 355 361 367 375 383 389 395 398 401 403 405 405 406 399 391 393 396 395 393 386 379 375 371 366 360 359 357 355 352 345 338 330 322 310 297 287 277 271 264 269 275 269 262 258 254 247 240 235 229 223 217 215 212 208 204 203 202 201 200 194 187 184 180 175 169 167 165 171 178 178 179 172 165 158 151 151 151 152 154 154 154 161 168 177 186 191 196 199 203 206 209 207 204 200 195 195 196 198 200 212 224 232 240 248 257 267 278 289 300 307 315 313 310 308 305 313 322 357 393 411 429 431 434 439 444 446 449 450 451 452 454 462 471 482 494 496 498 497 495 492 488 485 481 482 484 486 489 489 488 485 482 480 478 475 471 467 463 458 453 451 448 438 428 422 416 409 402 397 392 392 393 402 411 414 418 409 400 394 387 382 377 375 373 367 361 353 344 332 320 312 303 292 280 269 257 254 251 249 246 241 235 231 226 224 221 219 217 218 220 223 227 232 237 237 238 240 243 244 245 244 242 240 237 238 239 237 235 231 227 217 207 198 189 183 176 175 174 172 169 172 175 176 177 176 174 169 164 164 163 164 166 165 164 163 161 156 151 151 151 151 151 151 151 151 151 151 151 151 151 151 151 151 151 151 151 151 151 151 151 151 151 151 151 151 151 151 151 151 151 155 160 177 194 206 218 230 242 247 252 241 229 220 211 207 203 206 210 216 222 226 230 239 249 257 265 273 281 282 284 282 280 276 272 275 279 286 293 296 299 305 312 315 318 313 308 302 296 296 295 303 311 318 325 330 336 340 345 343 341 338 334 332 329 324 318 315 311 307 303 303 303 301 299 289 278 272 266 264 261 263 265 265 266 269 272 273 275 271 267 263 259 258 257 264 272 277 283 284 285 285 285 284 282 279 276 276 275 274 273 277 281 291 301 313 325 329 333 335 338 347 357 360 363 364 366 362 357 346 334 326 318 318 317 319 322 330 338 341 344 344 344 338 331 324 317 306 295 286 277 278 280 281 283 278 273 266 258 246 233 236 240 241 243 249 256 258 261 263 266 266 265 268 271 266 261 264 267 270 274 274 273 269 265 263 261 261 260 257 253 248 243 242 241 244 247 240 232 225 218 212 205 196 187 178 169 160 150 145 139 138 137 137 137 138 139 139 140 137 134 133 131 130 129 129 128 128 128 128 127 127 127 125 122 120 117 117 116 116 116 115 113 112 110 110 111 111 111 111 111 113 115 115 115 118 121 121 122 120 117 117 117 117 116 116 116 118 120 124 129 139 149 151 154 148 142 140 137 137 138 138 139 141 143 144 146 147 148 147 146 146 146 144 142 139 136 134 131 132 134 136 139 141 143 146 149 152 155 158 161 162 164 162 160 158 156 153 149 141 133 130 126 126 125 123 121 120 118 117 116 116 116 115 114 114 114 114 114 114 114 114 113 112 110 109 108 108 109 109 110 110 109 109 110 111 113 113 113 113 114 114 115 117 120 129 138 145 153 160 167 175 183 185 188 188 189 192 195 195 196 199 202 205 208 212 216 215 213 212 211 205 199
355 358 357 356 353 350 340 330 317 303 301 299 307 316 315 313 308 303 300 296 289 282 279 275 273 271 278 286 295 304 316 329 340 352 363 375 382 390 399 409 418 427 428 430 426 421 420 418 417 415 417 419 418 416 410 404 397 390 390 389 391 394 394 393 387 380 373 365 363 360 356 352 350 348 349 350 356 362 370 378 384 390 391 392 392 392 388 383 384 386 385 384 378 371 368 365 365 364 363 362 359 356 350 344 337 330 316 302 294 286 273 260 259 258 257 255 253 250 243 235 227 219 212 205 202 199 196 192 193 195 196 197 195 192 188 183 179 174 170 165 170 176 177 179 174 168 162 155 153 151 151 152 154 156 163 170 180 191 195 199 202 206 206 207 203 199 198 196 200 204 204 205 215 225 231 238 243 248 259 271 280 290 301 313 310 307 306 304 325 347 379 412 423 435 438 441 439 436 438 441 445 450 451 453 458 463 475 488 490 493 492 490 487 484 482 479 480 481 481 481 480 479 478 476 475 474 474 474 466 458 453 448 444 439 427 415 408 400 394 388 386 383 388 394 403 412 415 418 413 407 400 393 388 383 383 382 373 364 354 343 332 321 314 306 297 288 278 268 254 239 237 234 231 227 222 217 216 214 209 203 206 209 213 217 222 228 229 231 234 237 237 238 237 236 234 232 235 239 239 238 234 229 222 215 206 196 189 182 181 179 179 179 179 179 179 180 177 173 170 167 166 164 164 165 164 162 161 159 157 155 153 151 151 151 151 151 151 151 151 151 151 151 151 151 151 151 151 151 151 151 151 151 151 151 151 151 151 151 151 151 159 168 168 167 184 202 216 231 239 247 245 243 234 225 218 210 211 213 223 233 233 233 240 247 252 257 264 272 280 288 291 295 296 297 292 286 286 285 290 295 297 300 304 309 312 315 316 317 313 309 302 294 299 304 307 310 311 313 316 319 322 325 325 324 321 317 316 314 313 311 309 306 304 301 296 290 282 273 267 260 258 255 255 256 258 261 264 267 269 271 266 260 259 258 264 271 276 282 283 285 287 290 289 288 286 283 278 272 270 267 268 270 278 287 302 318 327 336 339 342 349 356 366 376 377 379 376 373 367 360 350 339 329 318 318 317 320 323 329 335 340 346 345 343 334 325 325 325 314 302 289 276 278 281 275 269 261 253 252 250 243 236 238 240 242 244 246 248 252 256 256 257 261 266 273 280 280 280 280 281 282 283 283 284 283 282 281 279 279 278 273 267 261 254 252 250 250 250 247 243 237 230 221 212 202 192 185 177 170 162 154 146 143 139 139 140 140 139 139 140 139 137 136 134 133 131 131 131 131 131 130 129 128 127 126 124 124 124 124 125 125 124 123 121 119 117 116 114 111 108 108 107 107 108 111 114 116 119 119 120 118 115 114 113 116 120 121 122 124 126 133 140 151 163 167 172 165 157 151 145 144 142 142 143 144 146 146 145 144 142 142 142 142 143 141 138 135 131 129 127 128 130 134 138 140 142 143 144 145 146 151 157 159 161 161 160 159 157 154 150 143 136 131 125 123 121 121 121 120 118 117 116 116 116 116 115 115 114 114 115 115 114 113 111 111 111 110 108 108 108 108 108 108 107 107 108 110 113 113 113 113 114 114 115 116 118 126 135 144 154 162 170 174 178 178 179 179 179 183 187 191 195 197 200 201 202 203 205 205 206 206 206 201 195
355 359 363 368 362 355 344 332 318 304 297 290 294 298 298 297 293 289 287 284 277 270 266 262 260 258 264 271 284 298 308 318 330 343 357 372 382 393 400 408 417 427 428 430 423 416 413 409 409 408 408 409 405 400 395 389 389 388 387 386 385 384 382 380 379 377 372 366 363 359 357 355 349 343 344 345 345 345 348 351 358 365 368 372 370 368 366 364 364 364 366 368 368 367 365 363 363 362 361 360 357 354 347 340 335 330 319 307 299 290 280 269 256 243 241 239 237 234 226 218 213 208 206 203 201 198 198 199 203 208 207 205 200 195 191 186 183 179 175 171 174 177 177 176 174 171 166 160 157 153 153 154 156 159 165 172 181 190 194 199 203 207 207 208 205 201 201 200 204 208 210 213 219 225 229 233 239 245 259 273 281 289 297 306 306 305 309 314 342 370 394 418 424 431 434 437 435 433 440 448 455 462 460 457 460 463 471 479 481 484 483 482 482 482 479 476 476 475 475 476 476 475 475 474 471 467 467 467 459 451 446 441 433 425 416 406 399 391 385 379 379 379 392 406 411 416 414 411 411 410 403 396 389 382 380 378 369 360 350 340 332 324 316 308 298 288 283 277 260 243 233 223 222 221 216 210 210 210 204 198 198 197 201 205 213 221 222 223 228 234 233 232 232 232 233 234 234 235 235 236 233 230 225 220 214 208 201 194 192 189 188 186 185 183 184 185 183 180 177 174 175 176 174 172 169 165 161 157 157 157 156 155 153 151 151 151 151 151 151 151 151 151 151 151 151 151 151 151 151 151 151 151 151 151 151 151 151 151 165 179 181 184 182 180 194 209 223 237 239 241 234 227 221 214 216 218 233 248 246 244 240 236 248 260 267 274 279 284 292 300 305 310 312 315 309 303 303 303 307 311 312 313 310 307 312 318 323 329 327 324 315 306 300 294 294 294 296 299 300 302 307 312 311 310 308 306 311 317 317 316 314 311 304 297 287 277 272 266 260 254 253 252 252 251 252 253 258 263 263 264 262 259 263 267 273 279 281 283 285 288 289 291 289 287 287 286 279 271 268 264 268 273 285 298 308 319 327 336 342 348 358 368 379 390 391 393 389 384 378 371 362 353 338 322 321 319 325 331 335 339 340 341 340 339 332 325 325 324 319 314 302 290 286 282 270 258 244 229 232 236 236 236 236 236 239 242 242 242 246 251 252 254 259 264 268 273 279 285 287 290 290 289 289 289 289 289 289 288 288 287 282 276 273 269 262 255 253 251 247 243 238 232 226 219 207 195 191 187 184 180 171 161 155 149 148 146 144 141 140 138 137 135 135 134 133 132 132 131 131 130 130 129 129 128 128 127 127 127 127 127 127 127 125 123 123 122 120 117 115 113 114 115 114 113 111 108 109 110 113 116 115 114 113 112 116 121 121 122 126 131 140 150 160 171 175 179 173 167 161 154 150 146 146 145 145 145 145 144 142 139 142 145 146 147 143 138 133 128 126 124 125 126 129 133 135 137 137 136 138 140 143 147 151 156 157 159 158 156 152 147 142 136 132 127 125 123 122 120 119 118 117 116 116 115 115 114 114 114 114 114 113 112 112 111 111 110 110 110 110 110 110 109 109 108 108 109 111 113 113 114 114 114 115 116 119 122 128 135 144 154 160 167 169 171 169 166 168 170 179 189 193 197 197 197 197 198 200 203 201 199 198 197 195 193
356 364 368 373 367 360 349 337 322 306 299 292 287 282 282 281 281 281 277 273 265 256 251 245 245 245 249 253 271 289 302 315 328 341 352 364 376 388 397 407 414 422 422 423 418 412 413 414 414 414 409 403 398 393 392 390 393 396 394 391 385 378 375 372 372 373 373 374 369 364 360 356 350 344 341 338 338 337 334 331 332 333 336 340 341 342 342 342 344 346 348 350 353 357 357 358 356 353 351 349 347 344 339 334 327 320 313 305 296 287 279 270 257 244 231 218 215 211 209 206 206 207 207 207 204 201 201 202 205 209 209 209 205 200 196 192 185 177 173 168 169 170 174 178 177 175 171 166 162 157 156 155 158 161 165 170 179 188 192 196 199 203 204 205 205 205 203 201 203 206 209 212 216 221 225 230 242 254 262 271 280 290 299 308 310 312 325 339 363 388 402 416 420 424 429 435 438 442 449 457 465 473 473 473 474 476 473 469 467 464 465 466 468 471 470 469 469 469 471 474 475 476 474 472 465 458 455 452 447 442 437 431 423 415 410 405 398 391 386 380 381 382 396 411 412 414 411 408 408 409 400 391 385 378 374 369 364 358 351 344 334 324 317 309 302 295 289 282 269 256 238 219 217 214 210 205 205 204 200 195 191 186 188 191 199 208 212 217 224 231 231 230 230 231 233 235 233 231 232 233 232 230 228 225 218 211 207 202 199 195 194 192 190 188 188 188 187 185 184 182 182 183 182 181 177 172 166 159 160 162 162 161 156 151 151 151 151 151 151 151 151 151 151 151 151 151 151 151 151 151 151 151 151 151 151 151 158 165 173 181 182 183 182 180 195 210 222 234 233 231 231 232 231 229 236 244 259 274 269 264 261 257 272 287 292 297 297 298 304 311 314 318 322 326 320 314 314 313 315 318 315 311 308 305 310 315 319 324 325 327 322 316 306 295 287 278 281 285 286 287 292 297 300 304 305 307 314 322 320 317 309 301 293 284 274 264 261 258 255 252 252 251 251 250 250 250 253 256 256 257 258 259 266 274 276 279 280 281 283 286 286 287 287 286 286 287 280 272 268 264 268 273 286 300 309 319 327 336 347 359 364 370 383 396 403 411 401 390 386 381 374 367 354 340 333 325 331 337 338 339 339 338 335 332 331 329 328 326 322 317 310 302 288 274 258 241 228 214 218 222 228 235 233 231 231 232 229 226 231 237 245 253 257 261 266 271 276 282 285 289 289 289 289 288 288 287 287 287 283 279 276 273 274 275 266 257 256 255 250 244 238 232 225 218 207 196 193 189 185 181 178 174 168 162 160 157 153 148 143 138 137 136 135 133 132 131 131 131 131 131 130 128 127 126 126 127 127 128 128 127 127 128 126 124 124 125 124 123 122 120 120 119 119 119 116 113 109 104 107 110 110 111 110 109 112 115 117 119 123 128 139 151 161 171 171 172 170 168 163 157 154 150 149 147 145 142 141 139 139 139 146 153 154 155 146 137 133 129 127 124 123 122 123 124 125 126 127 128 131 135 140 145 150 156 156 157 155 153 148 143 140 136 133 129 125 121 120 119 119 118 117 116 116 115 115 114 114 114 114 114 113 112 112 113 111 109 109 108 108 108 108 107 107 107 108 109 111 113 113 113 113 113 114 115 122 129 135 142 147 153 159 165 164 162 159 155 160 165 174 184 188 192 193 195 198 201 201 202 202 203 203 204 201 198
353 365 370 376 369 362 350 338 325 311 303 295 286 276 271 266 265 263 259 254 248 242 237 231 231 232 234 237 255 273 292 312 326 340 353 367 376 386 397 409 412 416 411 405 404 403 412 421 422 423 417 410 405 399 396 393 393 393 391 389 383 376 373 370 370 370 370 370 368 366 362 358 351 344 342 340 339 338 336 334 329 324 323 321 322 324 325 326 328 330 332 335 339 343 345 347 345 343 343 344 341 337 331 325 319 312 307 301 294 286 279 271 262 252 236 220 208 195 195 196 198 201 197 193 192 191 190 188 195 203 206 209 204 199 190 181 174 167 163 159 161 164 166 169 169 168 167 166 163 160 159 158 158 159 161 164 171 178 183 189 194 199 200 201 203 205 202 198 198 198 203 208 212 217 224 231 242 253 261 270 286 302 309 316 317 319 342 366 387 408 412 417 421 425 434 443 450 457 461 466 470 474 479 484 483 481 483 485 480 474 464 453 454 455 457 459 460 461 464 467 468 469 466 463 456 449 445 440 435 430 424 417 414 411 407 402 396 390 381 371 373 375 393 411 411 412 409 406 408 410 406 402 390 377 374 370 366 362 355 347 335 323 315 306 301 296 290 284 277 269 250 231 218 204 202 200 199 198 197 196 191 186 186 186 189 193 200 207 216 226 226 226 228 230 230 230 230 231 231 231 230 229 228 226 219 212 208 203 201 198 197 195 194 193 195 197 197 196 194 191 189 187 186 185 181 177 174 170 170 171 169 166 162 158 155 151 151 151 151 151 151 151 151 151 151 151 151 151 151 151 151 151 151 151 151 151 164 178 184 191 194 197 195 192 203 214 224 234 239 244 249 255 255 254 263 273 281 290 287 283 284 286 295 305 306 308 307 306 308 311 313 316 320 324 321 318 318 318 319 321 315 309 308 307 307 307 311 315 319 323 318 313 310 306 292 278 277 275 276 278 284 290 294 299 300 301 305 309 306 302 293 284 279 274 267 260 256 252 252 252 249 246 248 250 251 253 253 254 254 255 253 250 258 267 272 278 277 276 276 277 277 277 281 286 285 284 277 269 267 265 268 271 284 298 307 316 324 333 346 359 364 370 382 394 403 412 405 398 394 389 381 372 361 350 342 333 336 339 338 337 336 335 331 327 329 331 332 333 326 319 307 295 281 266 249 231 220 208 214 220 227 235 229 222 217 212 210 208 215 222 233 245 251 257 265 273 277 281 284 288 287 286 286 286 286 287 287 287 284 280 280 280 281 283 271 259 256 252 248 243 238 233 226 218 209 199 194 189 185 180 176 172 169 165 164 162 157 152 149 146 143 139 137 134 133 132 132 131 131 130 130 129 128 127 127 126 126 126 126 127 126 124 124 124 125 127 127 127 126 125 124 122 122 121 120 119 117 115 113 111 110 109 109 108 108 108 109 111 113 115 122 129 140 152 156 160 160 160 158 155 153 151 151 152 150 147 143 139 135 131 137 144 147 151 144 136 132 127 125 123 122 120 120 120 120 120 121 123 128 133 140 147 152 157 157 158 156 153 151 148 145 142 137 132 126 120 118 116 116 116 116 115 114 113 113 113 113 113 113 112 111 110 110 111 110 108 108 107 107 107 107 106 107 108 108 109 110 111 112 113 113 113 113 114 122 130 135 141 147 153 155 158 155 151 148 145 152 159 169 180 187 194 196 198 200 203 205 207 209 211 211 212 208 203
331 341 352 363 361 359 350 340 327 314 305 295 283 271 264 257 254 251 246 240 236 232 231 229 229 228 231 234 247 261 282 304 320 336 350 365 377 390 395 401 402 403 398 393 397 401 410 419 421 423 419 415 410 405 401 396 393 390 386 382 377 371 370 369 369 369 369 370 367 363 359 355 352 349 349 348 345 341 339 336 335 333 333 332 326 320 315 310 313 316 318 321 322 324 326 328 329 330 332 334 331 327 322 316 311 306 303 300 296 292 283 273 266 258 245 232 209 186 186 187 188 189 183 176 174 172 173 174 181 189 193 197 191 185 174 163 158 153 152 150 150 150 151 152 156 161 160 159 158 157 157 158 156 154 154 154 161 168 173 178 183 188 192 197 200 204 201 198 196 193 197 202 206 211 220 230 240 250 262 275 292 310 317 324 328 332 360 388 401 414 422 430 436 443 450 457 462 467 469 471 477 483 486 489 488 487 487 488 484 480 474 467 458 449 450 451 449 447 447 447 449 451 448 445 439 433 432 431 424 417 411 405 403 400 399 397 392 387 377 367 367 367 383 400 404 409 410 412 415 418 416 413 399 384 379 373 368 362 349 336 324 311 308 304 301 297 292 286 278 270 258 246 229 212 208 203 202 200 197 193 190 186 186 186 187 189 192 196 206 217 218 220 222 225 227 230 229 228 229 230 230 229 228 226 220 214 210 205 204 202 201 199 198 196 198 201 201 200 196 192 190 188 187 185 183 181 180 179 179 178 174 169 167 164 160 156 154 151 151 151 151 151 151 151 151 151 151 151 151 151 151 151 151 151 164 178 185 192 197 202 206 211 210 209 212 216 226 237 245 253 260 268 268 269 274 279 285 292 291 290 293 296 304 313 311 308 307 306 307 309 310 311 313 316 317 319 320 321 322 323 317 311 310 309 306 303 305 307 310 313 314 315 311 307 301 294 286 278 278 279 282 286 287 289 289 290 293 296 293 290 285 280 276 271 266 260 257 253 253 253 253 253 252 250 252 254 257 260 257 253 247 241 251 262 265 269 268 266 265 264 266 269 276 283 283 282 274 265 265 265 271 277 288 300 306 313 320 328 341 354 361 368 378 388 391 395 393 391 389 387 381 375 364 353 343 333 336 340 338 336 332 328 324 320 323 326 329 333 326 318 302 285 271 256 239 222 213 204 211 218 226 235 228 221 212 203 203 204 214 225 233 242 248 255 263 272 276 281 283 285 284 283 286 290 290 289 287 284 281 278 280 283 285 287 279 270 260 250 247 244 241 238 231 223 214 205 200 194 186 178 175 172 171 169 166 162 158 154 153 152 150 148 145 142 138 133 132 130 130 129 129 128 128 129 129 129 128 126 126 125 124 123 123 123 124 125 125 124 123 122 122 123 122 121 121 121 121 120 120 119 118 117 116 114 114 113 111 109 109 110 111 113 118 124 131 139 142 145 144 142 142 143 147 151 151 151 144 136 132 128 134 140 144 149 143 136 132 127 124 121 121 120 119 118 118 118 119 120 124 128 133 138 142 147 149 151 151 150 146 142 139 135 130 124 121 117 116 115 115 115 115 115 115 114 114 113 113 112 111 109 109 108 108 109 109 108 108 107 107 107 107 108 108 109 109 109 110 111 112 113 113 114 114 113 117 122 127 133 139 145 145 146 141 136 140 144 150 156 169 183 194 205 204 203 206 209 213 218 218 217 215 213 208 203
323 329 336 343 346 349 343 337 324 310 299 288 277 266 261 256 254 251 247 243 238 232 231 229 229 229 233 237 249 261 276 291 307 324 342 360 375 391 396 401 399 396 394 392 395 398 405 413 415 418 416 414 410 406 402 397 396 395 391 386 379 371 370 368 370 373 373 374 371 368 364 359 358 357 354 351 346 340 335 329 331 334 337 341 337 332 323 314 308 302 306 310 309 307 308 310 312 315 316 317 316 315 311 307 304 301 299 296 293 289 282 275 267 259 249 239 213 187 183 179 178 177 172 167 164 160 161 162 164 167 168 169 166 162 157 152 150 147 147 147 147 147 147 147 148 150 150 150 151 153 153 154 153 151 151 152 156 161 163 165 168 172 180 188 196 204 202 199 195 191 193 196 198 200 212 224 237 251 266 282 299 316 322 328 341 354 374 395 406 418 431 444 452 461 464 467 471 475 477 479 483 487 489 491 491 491 490 488 486 484 481 478 473 468 461 453 448 442 441 439 439 440 437 434 430 425 424 422 415 407 399 391 390 389 387 384 379 374 370 365 364 363 372 382 393 404 410 417 419 422 418 414 404 394 386 378 369 360 347 334 321 308 306 304 302 300 293 286 279 272 262 251 239 227 220 212 209 206 199 191 189 186 186 186 186 186 187 188 196 204 211 218 218 218 219 220 220 220 222 225 227 229 228 226 223 220 215 210 207 203 201 199 199 199 201 204 202 200 195 190 188 185 185 185 184 182 183 184 184 183 176 169 166 162 159 155 156 157 154 151 151 151 151 151 151 151 151 151 151 151 151 151 154 158 168 178 187 196 202 208 214 221 221 220 221 222 229 236 245 254 262 270 273 276 276 275 279 283 285 288 292 296 304 313 311 309 307 305 305 306 307 309 310 312 315 318 317 316 317 319 313 307 308 309 307 304 304 305 305 306 309 313 315 318 313 307 297 286 281 276 278 281 281 282 281 279 283 287 286 284 283 282 280 278 276 273 270 267 262 257 259 261 260 258 261 264 266 269 266 262 251 240 246 253 249 245 244 242 247 253 258 263 269 276 277 279 272 265 265 265 272 279 289 299 305 311 318 326 339 352 359 367 374 381 383 386 382 378 378 377 373 368 361 354 346 337 335 333 330 327 322 317 317 316 319 323 323 323 316 308 291 274 261 247 233 218 211 203 208 213 222 231 226 220 211 202 204 207 219 232 238 245 249 253 260 268 273 279 279 280 280 281 284 288 289 290 288 286 280 274 276 279 279 279 273 266 261 255 251 247 245 242 236 229 220 210 205 200 194 188 184 180 178 175 170 165 161 157 156 154 151 148 146 144 140 135 133 130 129 128 127 126 126 126 126 126 126 125 125 124 123 121 122 124 124 125 124 122 122 122 122 123 123 122 122 121 121 121 119 117 117 117 116 114 113 112 111 109 109 109 109 110 110 110 115 120 125 131 130 129 130 132 137 143 146 149 143 137 131 125 128 132 138 144 142 139 134 128 124 120 120 119 118 117 117 116 117 118 121 124 128 132 135 138 142 146 148 151 150 148 141 133 127 121 119 116 115 114 114 115 115 114 113 112 112 113 113 112 111 110 110 110 109 108 108 108 108 107 107 108 109 110 111 112 112 112 112 113 112 110 110 111 112 113 113 114 117 120 125 130 132 135 132 129 136 143 149 155 170 185 195 206 207 208 213 218 220 223 223 222 219 216 210 204
327 333 332 331 333 335 331 327 316 305 292 278 269 260 260 259 257 254 251 247 242 237 235 232 231 229 232 235 249 264 277 291 304 318 332 346 361 377 383 390 392 395 395 396 398 401 405 410 413 416 416 416 414 411 409 406 405 403 398 392 385 377 378 380 382 384 383 382 380 378 374 369 363 357 351 345 340 335 331 326 330 334 337 340 337 333 327 321 311 300 297 294 294 293 293 293 294 296 297 299 300 302 301 300 297 294 292 289 285 281 274 267 262 256 250 244 224 203 192 181 177 172 171 169 169 168 169 171 165 158 158 159 157 155 151 147 147 147 147 147 147 147 147 147 147 147 147 146 148 151 152 153 151 148 149 150 151 153 156 160 167 175 182 190 195 201 201 200 197 193 191 189 192 196 206 217 233 249 264 280 295 311 320 330 347 364 382 400 417 434 446 459 464 469 472 476 479 483 483 484 486 488 490 492 494 496 497 499 495 491 486 481 477 472 467 462 451 440 436 431 431 430 427 423 420 417 413 409 402 394 385 376 375 373 368 363 359 354 354 355 356 358 368 378 392 407 414 422 422 423 418 412 405 398 390 381 369 357 345 332 324 316 310 304 299 294 288 282 274 265 255 244 238 231 223 215 211 206 200 194 190 186 186 186 186 186 186 186 193 200 208 217 216 215 213 210 211 213 216 219 222 226 225 223 223 224 221 217 213 208 206 203 203 202 203 205 204 202 197 192 191 189 188 186 185 183 185 187 187 186 182 178 174 169 164 159 157 155 153 151 151 151 151 151 151 151 151 151 151 151 151 151 151 151 162 174 184 195 202 209 218 227 226 224 223 222 233 245 253 261 263 266 271 276 274 271 273 275 279 283 287 291 299 307 307 306 304 301 303 305 307 309 311 313 317 322 318 314 309 304 304 304 306 308 307 306 306 307 307 306 311 317 323 329 323 316 304 291 284 277 275 273 272 271 269 266 267 269 275 281 286 291 290 289 288 287 286 284 277 270 269 267 266 264 265 267 268 270 270 269 260 251 250 248 241 234 231 227 232 237 251 265 272 279 279 279 274 268 267 265 272 279 288 298 303 308 316 324 338 352 360 369 377 386 387 389 382 375 370 365 361 356 352 348 345 341 333 325 321 316 313 310 314 318 320 322 316 309 300 291 276 261 249 237 227 217 209 200 205 211 214 218 214 209 205 201 203 205 214 224 234 245 250 256 264 272 274 277 277 278 278 279 281 284 286 288 284 279 277 275 275 274 271 268 267 265 263 260 256 252 248 244 237 229 223 216 212 208 204 200 192 184 181 177 174 170 165 159 157 155 152 148 147 145 141 136 134 131 131 130 129 128 128 128 127 125 125 124 124 123 121 119 122 126 125 124 122 120 120 121 121 122 121 120 120 121 121 120 118 116 115 113 113 113 112 111 112 113 113 113 112 111 108 105 106 107 111 115 117 119 120 121 126 132 136 140 138 135 126 117 118 119 125 131 135 139 135 131 126 120 120 120 120 120 119 117 118 119 121 124 126 129 132 136 139 143 146 149 148 147 140 133 128 122 119 116 116 115 115 115 115 114 114 113 113 113 113 114 113 112 111 110 109 108 108 107 107 106 106 107 107 108 108 109 109 110 110 110 110 110 109 108 109 110 110 110 111 113 115 117 118 120 121 123 130 138 143 149 165 181 194 208 208 208 214 221 226 232 231 230 228 225 216 207
329 335 332 329 327 324 320 315 307 299 286 272 266 260 260 260 258 256 253 249 244 239 237 234 232 230 230 229 241 254 274 294 308 322 332 342 354 367 375 384 389 394 397 400 402 405 408 411 411 411 410 409 410 411 409 406 402 397 394 390 388 386 387 388 389 390 390 391 391 391 385 379 369 358 353 347 341 334 330 325 327 329 330 331 329 327 323 319 311 303 296 289 287 284 283 282 282 282 283 285 288 291 291 292 291 289 287 284 281 278 274 270 265 260 257 254 245 236 218 200 195 189 186 182 182 183 183 183 174 164 162 160 156 152 149 146 146 147 147 147 147 147 147 147 147 147 147 147 149 151 152 154 152 150 150 150 151 153 156 159 168 177 186 195 196 198 198 198 197 196 193 190 190 190 199 208 225 243 260 277 294 312 321 331 348 366 382 399 418 438 446 455 460 466 472 478 480 483 483 484 487 490 493 497 500 503 503 503 499 494 488 482 474 465 463 460 449 437 428 419 416 413 412 410 405 400 393 386 381 375 367 358 357 355 354 352 351 350 349 348 348 348 363 379 393 408 413 419 419 418 414 409 405 401 392 383 370 357 348 338 325 312 304 295 292 288 284 280 272 264 255 245 241 236 228 220 214 208 204 200 193 186 186 186 186 186 186 186 197 208 212 216 215 214 210 205 206 207 209 212 215 218 219 220 221 222 223 224 220 215 213 211 208 205 205 204 203 202 197 191 191 191 189 187 184 180 183 186 185 184 183 181 179 176 173 170 161 151 151 151 151 151 151 151 151 151 151 151 151 151 151 151 151 151 158 166 178 191 199 208 216 225 225 226 228 231 240 249 255 262 263 265 270 276 273 270 271 273 279 285 288 292 296 301 301 300 300 300 302 305 310 316 318 320 322 324 321 317 311 304 306 308 308 309 309 309 315 321 322 323 326 330 334 338 328 318 307 295 288 281 273 265 263 260 259 257 259 261 274 287 291 295 294 293 293 293 293 294 289 284 281 277 275 273 271 269 269 269 269 270 263 255 247 239 238 237 230 223 225 228 244 261 270 279 278 276 272 267 266 265 269 274 284 295 300 305 312 320 336 352 361 370 379 388 388 387 381 375 368 360 355 350 346 342 342 341 332 323 319 314 310 306 309 312 313 315 307 299 286 272 260 247 236 225 219 213 206 199 199 198 199 200 201 202 206 211 212 214 215 216 224 233 241 249 257 266 269 272 275 279 281 284 284 284 285 287 281 275 274 272 271 269 266 263 265 268 266 263 259 254 246 237 231 225 222 218 214 209 208 207 201 195 188 181 177 172 168 164 159 154 152 149 147 144 141 137 136 134 133 132 132 131 129 127 126 125 124 123 123 124 123 121 121 122 121 119 118 116 117 118 118 117 118 120 120 121 121 120 120 119 118 116 115 113 114 116 116 116 116 116 115 113 111 108 108 107 107 107 109 111 112 113 118 123 127 131 131 130 124 118 118 117 119 121 128 135 132 128 123 118 119 120 120 120 119 118 119 120 121 123 126 129 133 138 141 144 145 147 145 142 138 134 131 127 124 120 118 116 116 115 115 114 114 113 113 114 114 114 113 112 111 109 109 109 109 109 108 107 107 106 106 107 107 107 107 107 107 107 108 109 108 107 108 109 109 108 108 109 111 114 114 115 117 119 125 132 137 143 163 183 197 212 210 208 210 213 224 236 236 237 230 222 212 201
325 331 327 323 318 312 305 298 292 285 275 265 260 255 256 258 257 256 253 250 246 242 240 237 234 231 230 229 237 245 265 286 303 320 335 350 365 381 384 388 390 392 395 399 402 406 409 412 412 413 411 408 406 403 399 395 393 391 391 392 394 397 396 395 394 393 393 394 395 396 390 384 375 365 359 353 346 339 331 323 321 319 319 318 318 317 317 317 310 303 297 291 287 282 279 275 274 272 273 274 276 279 281 283 283 284 282 280 277 274 270 266 262 258 255 251 251 251 240 228 216 204 204 203 204 205 202 199 188 176 166 156 154 152 154 156 157 159 157 155 151 147 147 147 147 147 147 147 147 147 150 154 153 151 149 147 148 150 152 154 161 168 177 187 189 192 192 191 195 199 197 195 191 187 193 199 215 232 251 270 286 302 316 330 346 363 381 399 416 433 441 450 454 458 466 475 477 480 484 489 490 491 492 494 495 496 494 492 490 487 481 475 469 462 456 450 441 432 420 408 405 402 402 403 402 401 395 389 381 372 361 349 344 339 338 336 335 334 335 336 338 340 358 377 390 404 407 411 413 416 413 410 408 405 395 385 372 358 348 338 328 317 305 293 288 283 276 269 263 257 250 243 239 235 225 215 212 209 208 207 197 186 186 186 186 186 186 186 198 211 215 220 220 220 216 212 213 214 211 208 209 211 214 218 219 220 223 226 226 225 222 219 214 209 207 205 203 200 194 188 185 182 182 181 182 183 185 188 186 184 182 179 177 174 172 170 161 151 151 151 151 151 151 151 151 151 151 151 151 151 151 151 151 151 155 159 172 185 197 210 218 227 228 229 232 235 239 243 252 261 267 274 280 287 282 277 280 284 289 294 296 298 299 300 300 301 304 308 311 315 321 328 330 332 332 331 328 325 316 307 310 314 317 320 324 328 331 335 334 333 335 338 340 343 335 327 314 301 291 281 272 262 260 258 259 260 262 265 278 292 297 303 301 299 297 294 294 294 292 289 287 285 281 277 274 270 271 272 269 266 260 253 245 236 236 237 232 226 225 223 239 255 263 272 272 271 268 264 264 265 265 265 278 292 297 303 308 313 328 344 355 366 374 382 379 376 372 367 361 354 348 341 340 339 337 335 327 318 312 306 305 303 303 304 303 301 293 284 270 255 242 228 219 210 207 203 199 194 191 188 192 197 201 206 208 211 214 217 217 216 222 229 235 241 247 254 259 264 267 270 276 283 285 287 284 281 275 269 268 266 264 261 260 259 261 263 260 257 250 243 236 228 224 219 218 216 213 210 208 205 202 199 191 183 178 173 168 162 158 154 152 149 147 144 142 139 138 136 136 135 135 134 131 128 127 125 124 123 123 122 123 124 124 123 123 123 122 120 121 123 123 122 123 124 125 126 126 125 121 116 116 116 116 116 116 117 117 118 118 118 114 109 108 106 106 106 104 102 103 105 107 109 110 111 113 115 115 116 115 113 113 113 114 116 121 126 124 121 118 115 116 117 117 118 118 118 117 116 118 121 125 129 134 139 140 141 144 148 146 143 138 132 131 129 127 125 124 123 119 114 114 113 113 113 113 113 113 114 113 112 111 109 109 108 108 108 108 109 109 109 108 107 107 106 106 106 106 107 108 109 108 107 107 107 107 108 108 107 109 111 112 114 116 118 126 134 144 154 166 179 193 207 204 200 198 195 211 227 224 221 211 200 194 187
322 328 324 320 314 308 297 286 276 266 260 253 251 249 251 254 253 252 249 246 244 242 238 234 233 231 230 229 229 229 249 269 290 312 334 356 369 383 385 388 390 392 393 394 395 396 400 405 410 416 415 414 407 399 395 391 390 388 389 390 393 397 396 394 393 392 393 395 396 397 393 389 383 376 370 364 358 351 343 334 330 325 321 316 315 313 313 314 308 301 296 291 287 283 278 272 270 267 267 268 269 271 272 273 274 276 276 275 273 271 267 262 257 252 250 247 249 252 251 250 235 220 212 204 203 202 205 209 201 192 183 174 167 160 162 164 167 171 167 163 155 147 147 147 147 147 147 147 147 147 148 150 150 149 148 147 147 147 150 154 159 165 172 180 185 190 191 192 197 202 202 202 200 198 198 197 209 222 242 262 277 293 307 322 338 355 372 389 407 425 434 443 447 451 458 465 472 480 482 485 484 483 485 488 489 490 486 481 478 475 471 466 461 456 450 444 436 427 418 408 402 396 396 397 395 392 389 386 379 371 361 350 339 327 326 325 325 324 326 329 335 341 353 365 377 389 396 403 410 417 416 414 409 404 393 381 370 359 349 339 328 317 306 295 288 281 272 263 255 246 240 234 232 229 221 212 210 207 207 206 200 193 190 186 186 186 186 186 198 211 216 222 222 223 223 222 223 224 221 218 217 215 216 217 218 220 225 230 229 228 224 220 216 211 208 204 201 198 193 187 183 179 178 176 176 177 178 180 180 179 177 175 174 172 172 171 161 151 151 151 151 151 151 151 151 151 151 151 151 151 151 151 151 151 155 160 175 190 203 216 223 230 230 229 231 233 243 254 265 277 284 292 297 302 299 295 297 299 301 303 305 308 307 306 306 305 313 321 323 325 330 336 337 338 341 344 341 338 331 323 326 329 334 339 341 343 343 344 343 341 340 338 337 336 329 322 311 300 288 276 273 270 272 275 278 281 275 269 277 285 292 299 296 293 292 291 292 293 293 292 289 286 281 275 271 266 267 269 266 263 257 250 240 229 228 226 226 227 227 226 233 240 243 247 256 266 265 264 264 264 268 273 280 288 296 304 310 316 328 341 350 359 364 370 366 361 357 352 347 342 337 332 335 339 334 329 322 314 308 302 301 300 295 290 285 280 272 264 252 239 225 210 203 196 195 193 190 186 189 192 199 207 209 212 213 214 215 217 215 213 220 227 235 244 249 255 261 267 270 273 276 280 280 280 276 272 266 260 260 259 259 259 255 251 252 253 250 247 240 233 227 220 218 216 213 209 206 203 202 200 197 194 187 179 175 170 166 161 159 157 155 152 149 145 144 142 141 140 140 139 139 138 134 129 127 125 123 121 122 123 124 126 126 125 125 126 125 124 125 126 125 123 122 121 121 121 121 121 120 119 119 119 119 119 119 118 118 118 115 112 109 106 106 106 105 104 103 102 102 102 103 105 105 106 107 108 108 108 109 111 112 114 114 115 116 118 117 116 116 116 116 116 117 118 118 118 117 116 118 121 125 129 132 135 137 140 142 145 145 144 139 134 131 127 127 126 128 131 125 119 116 113 113 113 114 116 116 115 114 113 111 109 109 108 108 109 109 108 108 109 108 107 107 107 107 107 107 108 108 108 108 107 107 108 108 107 107 108 109 110 111 113 116 119 130 142 152 163 173 183 191 199 198 196 191 185 192 199 194 189 184 178 179 180
314 326 324 322 315 308 292 275 264 252 245 238 244 250 251 253 253 253 251 248 245 242 238 233 233 233 231 229 229 229 243 258 282 306 333 360 369 379 381 384 384 385 387 389 389 389 392 396 401 406 406 407 402 397 395 393 392 391 389 387 389 391 391 392 392 393 395 397 398 399 398 396 394 392 386 380 373 366 363 360 355 350 339 328 321 313 311 308 303 297 294 290 287 284 279 273 270 266 263 260 260 259 261 264 265 267 267 268 268 267 262 256 251 246 244 242 246 250 252 255 244 232 223 213 209 204 203 202 201 199 194 188 182 175 175 174 174 174 169 163 159 155 151 147 147 147 147 147 147 147 147 147 147 147 147 147 147 147 151 156 158 161 166 171 178 186 191 196 198 201 201 201 201 201 199 196 205 215 232 250 266 282 298 314 329 345 363 381 396 411 418 425 430 435 445 456 465 474 475 477 477 477 478 479 478 476 473 469 466 462 460 457 454 450 444 437 427 417 408 399 391 382 382 381 379 377 374 371 367 362 353 344 333 322 318 314 309 304 315 327 335 343 347 352 365 379 388 397 407 418 417 415 407 398 387 376 365 354 344 334 325 315 307 298 293 287 277 266 255 244 233 222 218 214 211 208 206 204 202 200 193 186 186 186 186 186 186 186 199 212 216 221 222 224 225 226 226 227 225 222 222 222 222 222 221 219 225 232 232 231 227 222 217 212 207 202 200 197 193 189 185 181 179 177 177 176 177 178 176 174 173 171 171 170 168 165 161 157 154 151 151 151 151 151 151 151 151 151 151 151 151 151 151 151 155 160 174 189 204 219 225 232 228 224 227 231 245 259 270 282 292 302 309 316 313 309 307 305 306 308 312 317 315 313 313 314 321 328 328 328 333 338 343 349 354 359 360 362 354 346 349 353 358 363 362 361 360 359 359 360 353 346 336 325 318 311 301 290 284 278 281 284 287 290 290 291 280 269 271 273 280 288 287 285 285 286 286 287 290 294 292 289 282 275 269 262 263 264 263 261 253 245 232 218 212 206 210 214 218 222 225 228 231 235 248 261 258 255 258 262 266 270 278 286 296 307 313 319 328 337 345 354 354 354 351 348 342 335 331 327 327 326 328 330 323 316 313 309 306 302 296 290 283 276 270 264 253 241 230 219 209 198 192 186 184 182 179 176 185 195 203 211 214 218 220 222 224 226 222 218 221 225 236 248 253 259 263 267 272 277 280 284 283 281 278 274 268 261 256 251 251 252 248 243 241 239 238 236 231 226 221 216 214 211 209 207 202 197 197 196 194 192 187 181 176 171 168 164 163 161 157 152 149 146 144 142 141 139 139 138 137 136 131 126 124 122 122 123 124 125 127 129 129 128 128 127 127 126 126 125 123 120 120 120 119 118 118 119 119 118 118 118 118 119 119 118 115 112 109 106 106 106 106 107 106 105 105 105 103 100 101 103 104 106 106 107 107 107 108 110 110 111 111 112 112 112 112 113 113 113 114 115 115 114 114 115 116 117 120 124 127 131 133 136 137 139 139 138 138 139 139 140 137 134 134 135 137 140 133 125 120 114 114 113 113 113 113 114 114 115 114 112 110 107 107 107 107 108 108 107 107 106 106 107 107 108 108 108 108 108 108 108 108 108 108 108 108 108 109 111 111 112 113 114 120 126 137 148 161 175 184 193 189 185 181 176 171 165 162 159 163 167 174 181
299 316 317 318 309 300 284 267 259 251 242 233 239 245 250 255 255 256 253 250 245 239 235 230 230 231 230 229 236 243 246 249 274 299 326 354 363 373 377 382 384 386 387 389 389 389 393 397 399 401 401 401 401 400 400 399 397 395 391 387 389 391 392 394 397 401 405 409 406 402 403 404 407 410 406 402 396 389 386 382 376 370 362 353 343 332 324 316 308 299 293 287 284 280 277 273 270 267 262 257 255 252 255 258 258 259 259 260 260 259 256 252 249 246 245 243 243 244 249 254 247 240 231 222 215 208 203 197 199 201 199 197 194 191 188 184 180 175 167 159 157 155 153 150 149 147 147 147 147 147 147 147 147 147 147 147 147 147 152 158 162 166 167 168 171 174 179 185 188 191 191 192 194 197 195 193 196 200 219 238 257 276 291 306 318 331 347 364 379 394 398 403 411 420 434 449 453 458 459 460 462 464 464 465 464 462 459 456 455 454 452 449 445 441 434 426 418 409 400 390 380 369 367 365 369 373 364 354 349 343 337 330 323 316 311 305 304 302 316 330 331 333 335 337 353 369 380 392 404 416 414 411 402 393 382 371 360 349 341 333 324 315 310 305 300 294 284 274 259 244 232 219 216 213 206 198 196 193 192 190 188 186 186 186 186 186 186 186 199 212 214 216 217 219 222 225 227 229 229 230 227 224 224 225 223 221 225 229 233 237 231 224 215 205 201 197 198 199 195 190 187 183 181 178 177 176 176 175 175 174 176 179 176 173 168 163 161 159 160 162 157 151 151 151 151 151 151 151 151 151 151 151 151 151 156 161 176 192 208 225 230 235 231 227 230 233 246 260 271 282 294 306 312 319 318 317 313 309 305 300 308 317 315 312 312 311 318 325 324 323 330 338 346 355 363 371 373 375 372 369 372 376 379 382 380 378 375 371 367 362 357 352 335 318 309 299 292 285 281 277 278 279 281 283 284 286 278 270 266 262 268 275 275 274 277 280 280 279 284 289 288 286 282 278 270 261 257 253 253 252 247 241 231 221 213 205 205 205 212 220 226 233 233 234 245 256 253 250 255 260 264 269 275 282 295 308 313 319 325 331 338 346 343 340 338 336 331 325 319 313 314 315 315 316 312 307 306 305 301 296 286 276 267 258 251 244 231 217 209 201 195 189 185 180 179 177 175 173 182 191 198 206 210 214 219 224 227 231 229 226 226 226 234 242 247 252 256 260 266 273 278 284 283 281 279 276 273 270 267 263 256 249 245 241 238 235 232 229 225 220 217 213 213 212 212 213 209 204 198 191 190 188 184 180 177 173 172 170 167 164 161 158 155 151 147 143 140 137 137 136 135 133 129 125 124 123 126 129 128 126 128 130 130 129 129 128 127 126 126 125 125 124 124 123 122 121 121 120 120 121 120 119 118 117 114 111 109 107 106 105 105 105 105 106 106 106 106 105 105 105 106 107 107 107 107 108 107 106 107 108 108 109 110 111 111 112 112 111 111 110 110 111 112 113 113 113 114 115 119 124 127 130 130 130 130 130 131 133 135 138 142 146 145 144 142 139 138 137 131 125 120 114 114 114 114 113 113 112 113 114 113 112 110 107 107 108 108 108 107 106 107 108 108 108 108 108 108 108 108 109 109 108 108 107 107 108 108 109 111 113 113 112 112 111 115 120 133 147 159 171 184 198 189 180 169 157 150 143 142 141 157 173 182 192
288 301 303 306 299 292 280 268 257 246 243 239 239 238 245 253 256 260 255 250 242 234 232 229 229 229 229 229 230 232 238 244 267 290 315 340 353 367 373 379 384 389 390 391 392 394 397 400 400 401 400 399 399 398 400 402 399 396 392 388 389 391 394 398 402 406 410 414 414 414 412 409 411 414 414 413 408 402 399 396 391 385 381 376 371 365 354 342 331 319 305 290 285 280 277 273 270 266 261 256 253 250 251 252 253 254 254 254 252 250 249 248 244 239 239 238 238 239 240 242 240 237 231 225 216 207 205 202 204 206 206 205 200 195 192 188 185 182 175 167 162 157 156 155 151 147 147 147 147 147 147 147 147 147 147 147 150 153 157 161 164 167 167 168 165 162 164 166 168 170 171 172 177 183 185 188 188 187 208 229 249 269 282 295 306 318 332 347 361 376 384 393 402 411 425 439 440 442 442 442 444 446 446 447 447 448 444 440 441 442 439 436 432 428 422 415 406 397 390 382 372 361 357 352 357 362 354 345 337 329 320 311 305 298 294 290 294 299 312 326 322 318 321 324 342 360 375 391 400 409 403 397 390 383 376 368 356 344 335 325 318 311 307 303 299 294 284 273 261 249 238 226 221 216 207 197 193 189 188 186 186 186 186 186 186 186 190 194 199 205 206 208 212 217 219 221 224 227 228 229 227 225 224 222 222 221 223 226 231 237 233 228 219 210 203 196 195 193 190 186 186 185 185 186 184 181 179 177 175 172 174 176 173 170 166 162 162 161 161 162 157 151 151 151 151 151 151 151 151 151 151 151 151 151 156 162 178 194 208 222 226 230 231 232 230 227 240 254 266 279 289 300 305 311 313 316 314 311 306 300 306 313 313 312 310 307 309 311 316 322 336 350 358 367 371 375 374 372 372 372 373 374 375 377 377 378 373 368 362 355 350 345 329 313 303 292 289 285 281 277 277 276 275 274 274 275 272 268 263 257 259 261 261 262 267 272 270 268 273 279 279 280 278 276 269 262 254 245 244 242 241 240 235 230 223 216 212 208 209 210 219 228 230 233 240 247 246 245 250 256 260 264 272 280 293 306 310 314 317 321 325 330 327 324 322 319 315 311 307 302 301 300 299 298 298 297 297 297 291 284 272 259 248 237 231 225 213 201 195 189 185 180 177 174 173 171 172 174 180 187 195 203 208 214 222 230 233 236 236 237 237 236 237 239 245 252 256 261 266 271 273 276 277 278 279 281 279 277 275 272 270 267 266 264 261 257 254 250 245 239 230 221 219 217 218 219 218 216 207 198 192 186 183 180 177 173 173 173 171 168 164 159 156 153 149 145 143 140 139 137 135 133 129 125 126 128 130 133 132 130 130 131 131 130 129 127 128 129 129 130 128 126 125 123 122 120 121 123 123 122 121 120 120 120 116 111 109 106 106 105 105 106 106 106 106 106 106 106 106 106 106 107 107 106 106 107 106 105 105 106 106 107 107 108 108 109 109 110 110 110 110 111 112 113 113 112 113 114 114 115 120 126 126 127 127 127 129 131 135 139 144 149 147 144 140 136 133 130 124 118 116 114 114 113 113 113 113 113 112 111 110 109 109 108 108 108 108 108 108 108 108 109 109 108 108 107 107 107 108 109 108 106 106 106 106 107 108 109 109 110 110 111 111 111 113 116 129 143 155 167 175 184 181 177 162 147 139 131 138 145 160 175 184 193
286 295 300 305 303 300 287 274 258 242 239 235 235 236 243 251 254 257 254 250 240 229 229 229 229 229 229 229 229 229 229 229 252 276 299 323 335 348 360 373 381 390 388 386 390 394 399 404 404 403 403 404 402 399 398 397 395 392 389 385 389 394 398 402 402 401 405 410 417 424 420 416 415 414 414 415 414 413 410 406 402 397 393 388 387 385 375 365 349 332 315 298 290 281 278 275 272 268 263 257 255 252 251 250 247 244 244 244 242 240 237 234 230 225 224 223 223 223 223 224 223 222 222 221 218 215 218 221 221 221 220 219 214 208 202 195 191 187 182 177 171 165 164 163 159 154 151 147 147 147 147 147 147 147 147 147 147 147 151 155 158 161 163 165 162 159 157 154 153 152 154 157 162 167 170 174 177 180 197 214 235 257 270 283 294 306 319 332 346 360 369 379 389 400 410 420 420 420 421 423 428 433 433 434 434 435 431 426 427 428 427 425 421 417 413 409 401 392 385 377 366 355 350 344 344 343 337 330 322 314 303 291 284 277 273 268 277 287 298 310 309 307 313 320 338 357 372 388 395 403 394 385 378 371 364 357 347 336 328 320 313 305 301 297 292 287 278 269 260 251 244 237 230 223 212 201 196 191 189 186 186 186 186 186 187 188 191 195 197 199 200 202 207 212 214 217 219 222 224 226 223 219 219 219 223 227 226 224 228 232 230 227 224 220 213 205 198 191 190 188 189 190 190 189 189 189 187 184 181 177 177 176 171 165 164 162 162 162 162 163 161 158 155 151 151 151 151 151 151 151 151 151 151 151 156 162 173 185 198 212 216 220 223 226 224 222 231 241 253 266 277 289 294 299 306 313 312 311 307 302 303 304 308 312 309 306 306 306 320 335 349 364 365 367 366 364 360 355 355 355 357 359 362 365 364 362 354 346 342 338 334 330 320 309 298 287 285 283 282 281 277 273 272 270 270 269 269 268 262 256 255 253 256 259 263 268 267 266 268 271 271 271 271 272 269 265 257 249 242 235 235 235 231 226 220 214 209 203 203 202 209 217 223 229 234 239 239 240 248 257 261 266 272 278 287 296 299 303 307 311 311 312 307 301 298 295 295 295 297 300 300 299 298 296 295 294 292 290 281 272 259 246 234 221 213 204 196 188 184 180 177 174 171 167 167 166 169 173 181 189 197 206 210 214 218 223 227 231 237 243 243 244 241 237 248 259 265 272 275 278 277 276 277 278 280 282 283 285 286 287 285 283 281 279 278 277 273 269 263 257 248 239 229 218 216 213 213 212 207 202 195 187 187 186 188 190 190 189 183 177 170 163 159 154 151 147 145 142 139 136 134 131 129 127 129 131 134 137 136 134 134 134 133 132 130 127 128 130 132 134 131 128 127 126 126 126 126 125 125 125 123 120 120 120 116 112 110 108 107 105 105 104 105 106 106 105 106 107 109 111 109 106 107 108 107 106 106 106 106 105 105 105 105 106 106 107 107 108 108 109 109 110 111 113 112 111 111 112 113 114 116 118 119 120 121 123 126 129 132 136 142 149 147 145 141 136 132 127 122 116 115 114 114 114 114 114 114 113 113 112 111 110 110 109 109 108 109 110 110 111 110 109 108 107 107 107 107 107 107 107 107 106 106 107 107 108 108 108 108 108 108 109 110 111 112 113 123 133 143 154 159 164 162 159 151 142 136 129 135 141 156 172 185 199
277 291 301 311 313 315 303 290 273 256 252 247 241 235 239 244 247 250 247 243 236 229 229 229 229 229 229 229 229 229 233 237 252 267 287 307 319 332 348 364 376 388 386 384 387 390 396 403 405 407 409 412 405 397 395 393 390 386 386 386 388 391 395 399 395 391 394 397 406 415 414 412 411 409 412 416 415 413 413 413 407 401 394 387 388 389 383 376 358 340 322 303 291 279 275 270 267 263 259 254 253 252 250 247 243 239 235 231 227 222 220 218 218 218 218 218 218 218 218 218 218 218 223 229 229 229 233 237 236 235 233 230 224 217 214 210 203 195 189 182 177 171 169 166 164 161 154 147 147 147 147 147 147 147 147 147 147 147 147 147 150 153 154 156 157 158 153 147 147 147 148 150 153 156 158 161 167 173 187 201 221 242 258 274 284 295 308 321 334 347 355 364 374 384 393 403 401 399 401 403 407 411 413 416 418 421 422 423 423 422 420 417 414 410 406 401 393 384 374 364 358 351 345 338 333 327 323 318 308 298 285 272 270 267 263 259 269 279 287 295 296 298 307 316 333 350 366 382 388 395 385 375 368 361 353 345 337 329 321 312 305 298 295 292 288 283 274 265 258 251 245 238 234 230 218 206 200 194 193 192 192 193 192 191 192 193 195 198 198 198 198 197 202 208 211 214 215 216 218 221 220 219 220 222 224 226 224 222 224 227 227 226 222 218 214 210 209 208 205 202 198 194 193 192 191 190 189 187 187 187 183 178 174 170 170 169 168 166 166 167 166 164 163 162 162 162 163 164 164 165 158 151 151 151 155 159 168 178 190 203 208 214 220 226 224 222 226 230 242 255 270 285 295 305 308 312 315 318 316 313 306 299 306 313 310 306 306 306 320 335 343 352 353 354 350 345 342 338 342 346 354 362 364 367 357 347 340 332 331 330 324 317 310 302 293 284 282 279 281 284 279 274 272 270 271 273 271 268 265 261 255 248 250 253 256 260 262 264 266 268 267 265 268 271 268 265 256 246 236 226 226 226 222 217 212 206 203 200 200 200 202 204 211 219 224 230 232 235 243 251 256 262 268 274 280 286 291 296 297 299 295 291 289 286 285 284 287 290 295 301 298 295 292 288 287 286 283 279 267 255 244 233 221 209 199 188 183 177 176 175 171 167 165 163 167 172 175 179 186 194 201 208 210 212 214 216 221 227 232 238 239 241 240 238 244 251 263 275 280 286 287 289 289 289 288 287 286 285 288 292 292 291 287 282 281 279 278 277 273 269 261 253 242 231 221 210 205 200 198 196 191 185 190 195 200 205 205 204 197 190 180 170 164 158 156 153 150 147 143 139 136 132 131 130 131 133 136 139 139 138 137 135 133 130 129 128 130 133 135 138 136 134 132 130 129 128 128 128 127 126 122 118 118 118 113 108 107 105 105 106 106 107 107 108 108 108 109 110 111 112 111 110 110 110 109 108 107 106 106 105 105 105 105 106 106 107 107 107 107 108 108 109 109 109 109 109 109 110 110 111 111 112 114 117 120 124 129 134 136 138 144 151 150 148 144 139 133 126 121 115 115 115 115 116 114 112 112 112 112 113 113 112 111 110 110 111 111 112 112 111 110 109 108 107 107 107 108 109 108 107 107 107 107 108 108 108 108 107 107 107 107 108 109 110 111 112 117 122 132 143 146 149 144 139 134 129 129 128 136 144 161 178 191 205
264 277 290 303 309 315 307 299 283 266 263 259 251 242 238 234 237 240 239 238 235 232 231 229 229 229 233 238 245 252 252 252 258 264 278 293 304 315 333 351 365 379 380 382 383 385 391 398 404 411 411 411 406 400 397 393 391 389 386 382 383 384 387 390 388 386 389 392 396 401 401 401 401 401 408 416 413 410 406 402 399 395 391 387 384 380 374 367 353 338 324 310 296 281 271 260 254 248 247 246 245 244 242 239 236 233 228 223 221 218 218 218 218 218 218 218 218 218 218 218 221 224 231 238 241 244 245 247 247 247 244 240 234 228 224 220 210 199 189 178 176 173 173 172 171 169 158 147 147 147 147 147 147 147 147 147 147 147 147 147 147 147 149 152 152 153 150 147 147 147 147 147 149 152 159 166 173 180 191 202 217 233 246 260 273 287 295 303 316 330 339 349 358 367 375 383 383 382 383 384 387 391 395 399 405 411 414 417 414 411 408 405 401 397 394 390 381 372 361 349 344 338 331 323 320 316 314 311 300 288 274 260 259 257 255 252 263 275 278 282 284 286 298 310 325 340 356 373 379 386 374 362 356 349 342 334 326 318 312 305 300 295 293 290 284 278 270 261 255 248 242 235 233 230 219 207 200 192 192 193 194 196 196 197 197 198 200 202 202 201 201 200 203 207 208 210 210 211 212 213 216 220 222 225 225 224 223 221 223 226 228 231 229 226 219 212 210 208 208 207 205 202 202 203 198 192 191 190 189 188 184 179 177 174 173 172 171 169 168 167 166 164 165 166 168 170 172 174 174 175 172 169 166 162 162 163 170 178 189 201 207 214 221 229 232 236 236 237 250 263 286 309 322 335 332 328 328 328 325 322 313 303 309 316 313 310 308 305 315 325 333 341 341 342 338 334 334 334 343 353 360 367 362 357 344 331 327 323 322 320 315 309 301 293 287 281 280 279 279 278 276 274 269 263 264 265 265 265 263 261 256 250 252 254 254 255 255 256 259 263 263 262 262 261 258 255 248 240 233 225 221 217 215 212 208 203 201 199 199 199 199 199 200 202 207 212 218 225 232 240 248 256 263 271 278 286 289 292 291 290 289 288 286 284 285 287 284 281 284 288 288 288 284 280 278 276 268 260 248 235 225 215 205 194 187 180 176 172 171 170 168 166 166 167 172 177 178 180 188 196 200 204 204 205 209 214 218 222 227 232 236 240 239 237 243 250 266 282 289 297 301 305 306 307 306 305 302 298 297 295 295 296 292 288 286 284 278 272 270 268 263 258 248 237 226 215 208 200 194 188 187 185 190 196 201 207 207 207 202 197 188 179 171 163 160 156 152 147 144 140 140 140 140 140 139 138 140 143 142 141 138 135 134 132 132 133 135 137 138 140 138 135 134 132 131 129 130 131 129 127 123 118 118 118 114 110 108 106 106 105 106 108 108 109 111 113 112 111 111 112 112 113 112 110 108 106 106 105 105 106 106 106 107 108 108 107 107 106 107 108 108 109 109 108 108 108 108 108 108 109 109 110 112 114 119 125 133 142 146 151 153 155 153 150 143 136 132 127 121 115 114 113 113 114 113 112 113 114 114 113 111 109 109 110 110 111 111 112 112 111 111 110 110 109 109 108 109 110 109 108 108 108 108 109 108 107 108 109 109 109 109 109 109 110 110 111 114 118 123 129 129 130 127 124 121 118 120 122 134 147 165 183 196 209
256 267 276 286 292 298 296 294 282 269 264 259 253 246 238 229 229 230 231 232 232 231 233 236 236 235 239 244 250 257 261 266 267 269 275 281 288 295 314 334 347 361 368 376 380 385 388 391 397 404 406 408 407 406 401 396 390 383 377 371 371 372 376 380 381 382 386 390 395 400 398 395 394 393 403 413 409 405 401 396 390 384 380 375 375 374 364 354 342 329 318 306 289 272 256 240 234 227 227 227 226 225 224 222 221 220 219 218 218 218 218 218 218 218 218 218 218 218 220 223 229 235 239 244 246 249 253 257 258 259 257 254 248 241 236 231 219 207 194 180 177 174 174 174 172 170 164 157 152 147 147 147 147 147 148 149 149 150 149 147 147 147 147 147 147 147 147 147 147 147 147 147 151 156 166 176 183 190 195 200 212 225 239 253 264 275 281 287 301 315 323 332 340 349 356 364 364 363 363 363 366 370 374 379 387 395 398 402 400 397 393 389 384 379 378 377 367 357 350 343 336 329 317 305 304 303 302 301 290 278 267 255 248 241 241 242 255 269 272 276 277 278 289 300 314 329 347 366 370 374 360 345 338 331 327 322 315 308 303 297 294 291 288 285 278 270 265 259 252 245 239 233 230 226 215 204 198 192 192 192 192 191 191 190 190 191 195 200 200 201 203 205 208 211 213 215 216 217 217 218 222 227 227 227 224 220 220 220 225 230 232 234 233 231 224 217 213 209 209 209 208 207 207 206 205 203 200 197 192 187 183 179 177 174 173 171 169 167 166 164 163 162 163 165 165 166 165 163 163 164 162 160 160 160 161 163 171 179 193 207 213 219 227 235 242 249 256 263 271 279 304 329 342 355 355 354 348 342 334 325 314 302 305 309 309 308 306 303 307 311 317 324 327 330 329 327 335 343 351 360 361 362 353 343 336 328 323 318 315 311 303 295 288 281 280 279 277 275 274 273 271 269 264 259 257 254 254 253 253 252 249 246 245 244 245 246 247 248 254 260 259 257 254 250 248 246 241 236 231 225 220 214 211 207 205 202 202 201 201 201 200 199 198 196 203 211 216 221 226 232 240 248 261 275 285 295 294 292 290 288 290 293 294 296 294 291 285 278 279 280 281 283 277 270 263 256 249 242 233 224 212 200 192 183 179 175 172 169 168 167 166 165 167 170 173 177 180 183 186 190 192 195 198 202 205 209 214 219 224 230 233 236 235 234 242 250 267 284 295 307 311 316 318 321 321 321 319 316 313 309 306 302 299 295 293 291 287 283 273 263 255 247 244 241 233 225 218 210 201 191 190 188 193 198 201 204 204 205 201 196 192 187 178 169 161 152 148 144 143 142 142 143 143 143 143 143 145 148 146 144 138 132 133 135 136 138 139 140 140 139 138 136 135 133 132 130 131 132 132 132 128 124 124 125 124 122 119 116 112 107 106 105 107 110 112 114 115 116 115 114 113 111 111 111 109 107 106 105 106 107 108 110 110 110 109 107 107 107 107 108 108 107 107 107 107 108 108 109 109 109 109 110 111 112 116 120 127 134 140 147 151 156 155 153 144 134 128 121 118 115 114 113 113 112 113 114 114 115 113 111 111 111 112 113 111 109 110 111 111 110 110 109 109 110 109 108 108 109 109 108 108 108 109 110 111 112 112 113 114 116 115 113 112 111 112 113 116 120 122 125 121 117 116 115 116 117 119 122 137 153 173 193 205 217
250 261 269 277 280 283 285 287 283 278 270 261 254 247 239 231 230 228 228 228 229 231 233 236 237 239 243 247 251 256 262 268 272 276 273 269 273 278 292 306 324 343 355 367 374 381 385 389 393 398 402 407 406 405 399 392 383 374 369 364 365 367 368 370 373 376 380 384 389 394 396 398 393 388 394 400 399 397 395 392 383 374 370 365 365 364 356 348 329 309 295 281 267 253 242 231 226 221 220 219 218 217 217 217 220 224 229 235 235 235 233 231 229 227 223 219 218 217 223 230 236 242 243 245 247 249 253 257 261 265 264 262 255 248 243 238 227 215 199 182 176 169 169 168 168 167 162 157 152 147 147 147 147 147 147 147 152 157 154 151 149 147 147 147 147 147 147 147 147 147 147 147 151 155 166 177 183 190 192 195 206 218 230 242 254 267 270 274 284 294 305 316 323 330 336 343 343 343 343 342 345 348 353 358 367 377 380 384 381 378 375 372 368 364 365 366 360 353 344 335 327 319 305 290 290 289 290 291 280 269 262 255 245 235 235 236 249 263 267 272 271 270 279 289 303 317 334 352 354 356 345 333 326 319 316 313 307 300 293 286 284 282 282 281 273 264 260 255 250 244 237 230 227 223 213 203 196 188 189 191 189 186 187 188 188 189 194 199 201 203 207 212 215 219 222 225 226 227 228 229 232 236 234 231 225 218 218 218 227 236 236 236 234 232 227 221 217 213 213 212 211 209 209 210 210 210 207 203 197 190 186 182 178 173 170 166 163 159 156 153 154 155 156 158 155 152 152 151 153 156 158 160 160 161 163 165 172 179 191 204 212 220 229 238 248 259 266 274 279 284 303 322 339 357 360 363 361 358 348 337 325 312 309 305 305 305 306 308 309 310 314 318 323 329 327 325 338 352 356 360 358 355 345 335 330 325 321 317 311 304 294 284 278 272 273 274 272 269 267 265 263 260 254 247 247 246 245 244 244 244 242 240 240 240 240 239 241 243 246 249 248 247 244 240 236 232 231 229 225 220 215 210 208 206 205 204 204 204 204 204 202 200 199 197 200 204 211 219 222 226 235 244 264 284 290 297 294 290 290 291 294 297 297 298 289 280 277 274 274 275 271 267 260 252 247 241 235 229 220 211 200 189 185 180 178 176 175 174 171 168 167 166 171 176 179 182 184 186 192 198 198 198 202 206 208 211 214 218 223 228 231 234 238 242 246 250 267 285 297 310 316 322 323 324 326 328 328 328 326 324 318 312 309 306 302 298 295 292 282 271 258 244 240 235 233 231 226 220 211 201 200 199 200 201 203 205 205 206 200 193 190 186 179 172 161 150 147 143 144 145 145 144 145 147 148 149 150 151 146 141 137 133 136 139 140 141 141 142 140 138 137 136 136 137 135 133 136 139 139 138 136 133 132 130 128 126 122 118 116 114 111 108 108 107 108 109 110 111 111 111 110 108 110 112 112 113 110 106 106 107 107 108 108 108 108 109 109 108 108 108 108 107 107 106 108 110 110 111 111 112 112 112 112 113 114 116 119 122 127 132 138 145 150 156 146 135 127 119 117 114 114 115 114 113 113 113 113 112 112 112 113 114 114 115 111 107 108 109 109 110 109 108 108 108 108 108 108 108 108 108 108 107 109 111 113 116 118 121 119 117 115 113 115 117 118 119 117 115 117 120 118 116 115 114 114 115 119 123 141 159 179 199 210 222
239 247 255 264 270 276 278 280 280 280 274 268 260 251 243 235 233 231 229 226 226 227 230 233 237 242 246 251 256 261 266 271 276 281 279 277 273 269 274 280 298 316 333 350 361 373 378 384 388 392 395 398 400 403 394 384 375 366 361 355 355 355 356 357 361 365 371 377 383 389 389 388 384 379 382 386 386 387 385 382 370 358 353 347 347 346 337 328 312 295 283 270 260 250 245 239 236 232 228 224 222 220 219 218 225 233 239 246 246 245 242 239 236 233 229 225 223 220 223 226 231 237 239 241 243 245 247 249 256 263 264 265 258 251 247 242 233 224 208 191 180 169 169 168 167 166 163 159 157 154 153 151 149 147 150 153 156 159 159 160 159 157 152 147 147 147 147 147 148 149 151 153 154 156 164 172 177 183 187 191 198 205 218 231 242 254 258 263 270 278 289 300 308 317 322 327 326 325 324 323 325 327 336 346 357 368 369 371 367 363 360 356 355 353 358 364 360 355 343 331 317 302 291 279 276 272 274 277 272 267 263 259 247 235 235 235 246 258 261 264 264 265 270 276 291 306 321 337 337 338 330 322 318 313 309 305 297 288 283 278 277 275 274 273 267 260 255 250 248 245 240 234 227 220 211 201 195 189 187 185 185 184 185 187 188 190 193 197 199 202 209 216 220 224 226 228 227 226 228 231 234 237 233 228 223 217 217 216 225 234 234 235 232 228 225 222 221 219 218 216 216 215 215 215 213 211 207 202 196 190 185 179 174 169 167 164 160 156 152 148 148 148 150 152 154 156 156 157 158 160 161 163 165 168 169 170 176 182 194 206 214 222 230 239 246 253 261 270 281 292 301 310 327 344 349 354 354 354 351 347 337 327 319 310 307 303 303 304 308 313 319 326 329 333 331 328 343 358 356 354 349 344 335 326 323 319 314 308 299 289 280 270 268 266 266 267 264 260 259 257 254 251 246 240 240 240 240 240 240 240 240 240 240 240 240 240 240 240 240 240 241 242 237 231 229 227 226 225 223 220 218 215 214 212 211 209 209 208 208 209 204 198 198 199 199 198 203 208 212 217 229 241 262 283 287 292 287 281 283 286 292 298 294 289 281 272 273 275 270 265 257 248 242 235 231 226 218 210 202 193 187 181 179 177 177 176 175 174 172 169 169 168 172 177 179 182 184 187 192 198 203 208 208 207 206 205 209 213 218 224 231 238 240 242 244 246 262 279 290 302 311 320 323 326 326 327 328 329 328 327 322 317 314 311 308 304 301 298 288 278 263 247 240 233 233 233 228 223 215 206 208 211 211 210 210 210 210 211 205 198 189 180 173 165 159 153 151 148 150 153 151 149 150 151 152 154 150 146 142 137 138 139 140 142 142 143 143 142 142 141 141 140 139 138 137 136 139 142 143 145 143 140 137 133 129 124 121 117 117 117 114 111 109 106 106 107 107 106 106 106 106 105 107 109 111 114 111 107 106 104 105 107 107 108 108 108 108 109 109 108 108 108 108 109 109 108 108 108 110 112 112 113 113 114 114 114 114 114 116 119 126 133 140 148 142 136 129 121 118 115 115 115 114 113 113 113 113 113 112 110 112 114 114 115 112 109 109 108 108 108 108 109 109 110 110 109 109 108 108 108 108 108 110 113 116 119 118 117 114 111 113 116 121 127 124 120 116 111 112 114 114 113 113 113 113 114 122 130 150 170 188 206 210 215
227 234 241 249 257 265 269 274 275 277 272 267 260 252 246 239 236 233 229 225 226 227 229 232 237 243 249 256 264 272 276 281 283 286 284 282 279 275 272 269 277 286 302 318 335 352 362 372 377 382 382 382 386 391 383 374 365 356 350 344 338 332 333 334 341 348 357 366 372 378 373 368 366 363 366 369 369 370 368 365 354 343 336 329 326 323 318 312 303 293 285 277 266 254 249 243 241 238 234 230 228 226 225 224 227 230 234 239 240 241 240 239 237 235 232 229 225 221 221 221 224 227 231 235 237 239 240 241 247 254 256 259 255 250 246 241 233 224 206 188 180 171 170 169 170 171 169 166 164 161 158 155 153 150 150 151 153 155 156 157 157 157 152 147 154 161 159 156 155 153 154 156 156 157 163 169 173 178 182 187 191 196 205 215 226 237 242 248 256 264 274 284 292 301 305 309 309 309 308 306 312 319 329 340 351 363 363 363 357 350 345 340 341 342 348 355 353 351 341 330 314 298 285 272 268 264 269 274 274 274 266 258 249 239 237 235 242 249 252 256 256 257 262 267 281 295 309 323 325 328 322 316 312 307 300 292 281 270 269 267 266 264 263 261 259 256 253 250 245 240 235 230 223 215 207 198 191 184 184 183 184 186 186 186 187 188 190 193 194 196 203 211 215 220 222 224 223 221 223 225 227 229 225 221 218 214 214 214 220 227 228 230 230 229 224 219 218 217 215 212 212 213 213 212 212 213 209 204 197 190 185 179 173 166 162 158 156 153 151 149 149 150 153 156 158 160 160 159 161 163 165 167 169 172 172 172 177 183 193 204 212 221 230 240 243 247 259 271 286 302 302 302 314 326 337 348 350 353 354 356 347 337 326 314 312 309 304 298 306 315 320 326 327 328 329 330 345 360 351 342 337 332 325 318 314 310 305 300 291 281 279 277 272 267 263 259 257 254 253 251 250 248 244 240 240 240 240 240 240 240 240 240 240 240 240 240 240 240 240 240 242 244 241 237 237 236 233 230 229 227 230 234 230 226 221 216 215 214 210 205 202 199 198 197 196 195 197 199 204 210 226 243 261 280 280 281 276 271 275 279 283 288 281 273 270 267 262 256 251 245 238 231 227 222 217 211 204 197 192 186 182 178 177 176 175 173 172 170 169 167 168 170 174 179 180 182 186 191 201 211 216 221 218 215 209 203 206 210 217 225 233 241 241 241 243 246 262 279 290 301 308 316 318 320 322 325 325 324 322 320 318 316 315 313 311 308 304 299 292 284 274 263 251 239 232 225 221 217 212 207 213 219 217 215 214 212 213 215 212 208 200 191 177 162 158 154 155 156 158 160 158 156 155 153 151 149 145 141 140 139 142 145 147 149 149 150 146 142 142 143 142 141 140 139 139 138 141 145 147 149 147 144 139 134 128 122 119 116 116 115 113 110 109 107 106 105 105 104 104 104 104 104 105 107 108 109 108 106 106 105 106 107 107 108 108 109 109 109 109 108 109 110 112 115 114 113 111 109 109 108 108 109 110 112 113 114 114 115 116 118 123 129 135 141 139 137 129 121 117 113 113 114 114 113 113 113 113 113 111 109 110 112 111 110 109 108 108 108 108 108 108 108 108 109 109 110 110 109 109 108 108 107 110 114 115 116 114 111 112 113 116 120 125 130 124 117 114 111 111 112 112 111 112 113 114 116 126 137 161 186 200 215 215 215
215 223 229 235 241 248 256 264 267 270 267 264 260 256 250 243 237 230 229 228 231 234 237 240 243 247 255 263 271 279 282 285 284 282 281 279 279 279 278 277 277 277 284 291 304 317 327 337 341 346 348 350 355 361 358 355 346 336 329 321 314 306 303 300 308 317 327 337 343 349 347 345 345 345 349 353 353 354 354 353 343 332 326 319 317 314 310 306 297 288 281 273 264 255 250 245 239 233 230 227 224 220 221 222 225 228 232 237 237 237 236 234 234 234 231 228 226 224 222 220 220 219 222 225 228 232 233 234 239 244 246 249 246 243 239 235 229 222 210 197 186 175 174 173 172 170 167 163 163 163 163 162 160 158 157 155 153 151 153 155 156 158 160 163 163 164 162 159 158 157 157 156 157 159 164 170 172 175 178 181 183 186 196 207 216 225 229 233 241 250 260 270 276 283 287 292 293 294 295 296 307 318 331 345 354 364 364 365 359 353 343 332 332 333 337 341 339 336 330 323 313 302 288 274 267 259 261 263 263 264 260 255 248 241 235 229 235 241 245 249 249 250 254 258 269 280 294 308 312 316 311 306 300 294 283 272 266 260 259 257 255 253 253 252 251 250 248 246 239 232 228 223 217 210 203 195 191 186 185 183 184 185 185 185 186 187 188 190 191 193 199 206 211 217 218 219 217 214 215 217 217 217 215 212 211 209 210 211 216 222 222 221 221 221 219 217 216 214 212 210 208 206 206 205 206 208 206 203 196 189 183 177 170 163 161 158 154 149 148 147 150 153 155 158 160 162 163 164 164 165 167 170 172 175 175 175 176 178 189 201 210 219 227 236 242 249 263 277 291 306 307 309 316 323 334 345 348 352 355 359 355 350 336 321 316 311 311 310 318 327 323 318 317 316 320 325 337 349 343 337 334 330 325 319 313 307 301 295 292 288 287 286 279 271 266 260 259 257 259 262 258 253 247 240 240 240 240 240 240 240 240 240 240 240 240 240 245 250 249 248 250 252 252 252 248 244 243 241 239 237 237 236 235 233 226 219 214 208 206 203 203 202 200 198 200 202 201 199 203 208 218 229 249 270 270 269 266 263 267 271 272 273 267 261 256 250 245 240 237 234 228 222 214 205 200 194 190 186 184 181 178 174 171 168 166 164 164 165 165 165 168 172 176 180 181 182 190 198 203 209 213 217 217 216 213 209 211 213 218 224 231 238 240 243 246 249 263 277 287 298 304 310 314 318 318 318 318 317 316 314 313 311 311 310 309 307 303 298 290 281 275 269 263 257 244 231 221 211 209 206 212 219 220 222 219 215 214 213 207 200 194 188 177 166 163 159 162 165 165 164 160 156 155 154 151 147 145 142 144 147 149 152 153 155 157 159 157 154 153 152 148 144 141 138 138 138 140 142 146 151 150 148 143 137 132 126 122 118 115 112 111 109 109 109 107 104 104 103 101 99 100 101 102 103 104 105 106 108 108 109 109 109 109 109 109 109 109 110 110 110 110 111 113 115 115 116 116 116 115 113 113 112 112 112 112 113 115 117 118 120 123 126 126 126 124 122 119 116 114 112 112 113 112 111 111 112 112 111 110 109 111 113 111 109 109 108 108 108 108 108 108 107 108 109 110 111 111 112 111 110 110 109 109 110 110 110 110 111 112 114 116 118 120 122 118 113 112 111 111 111 111 112 112 112 113 114 131 148 173 199 206 213 215 217
203 214 218 222 227 233 241 249 255 261 261 262 260 257 253 248 239 230 229 228 233 239 240 241 245 250 253 256 261 267 269 272 271 269 268 267 268 269 272 275 277 279 283 288 290 292 295 298 302 306 311 316 322 328 328 327 322 317 313 308 302 296 292 288 289 290 298 306 312 319 318 316 318 320 327 334 335 336 337 339 332 324 319 313 308 302 302 301 292 283 275 267 257 246 242 238 234 229 226 223 220 216 218 221 222 223 225 228 228 229 230 232 232 233 232 230 228 226 224 222 219 216 215 214 217 221 223 226 230 234 235 236 235 233 231 229 225 221 214 206 197 187 182 177 173 169 167 165 165 165 165 164 164 163 159 155 153 150 152 155 159 163 165 168 168 169 167 164 163 161 161 161 162 163 165 168 170 173 175 178 180 182 189 196 205 215 218 222 228 234 244 255 261 267 271 276 277 279 281 283 297 312 329 346 357 369 368 366 358 350 335 320 322 324 330 336 335 334 329 324 313 302 288 274 266 257 257 256 255 254 251 248 243 238 232 225 229 233 235 237 240 243 246 250 259 269 281 294 298 303 299 294 288 282 275 267 264 260 256 251 249 246 246 245 245 245 240 235 230 224 222 219 212 205 200 194 191 187 185 183 185 188 187 185 185 186 187 189 191 194 196 199 205 211 211 212 210 208 209 210 210 211 210 208 207 206 208 211 213 215 217 219 219 218 218 217 215 212 209 206 203 200 202 204 205 207 203 199 193 187 182 176 168 160 157 154 151 147 148 149 152 155 158 161 163 166 166 167 168 169 171 173 175 178 178 177 177 177 185 194 205 216 224 233 242 251 264 277 289 302 304 306 313 321 328 336 341 347 350 354 352 350 344 338 321 303 309 315 326 337 331 325 318 310 315 320 326 333 330 327 327 328 326 324 322 320 316 311 308 305 304 302 295 288 283 277 274 271 275 279 277 275 271 267 264 261 257 253 247 240 240 240 240 240 240 240 244 249 249 248 251 255 256 257 252 246 246 245 245 244 241 238 238 238 230 221 214 207 205 202 202 203 200 197 194 191 192 194 198 202 208 214 233 253 259 265 263 261 263 265 263 260 256 251 244 237 238 240 236 231 222 212 205 198 192 186 182 177 177 176 174 171 169 167 166 164 163 162 164 167 172 178 179 181 183 185 193 201 206 212 211 210 210 210 210 209 212 215 218 222 229 236 237 239 243 247 259 271 281 291 297 304 309 315 315 316 314 311 308 305 303 300 300 300 298 295 290 284 279 274 270 266 262 257 246 234 224 213 211 209 213 218 221 225 223 221 215 208 194 179 176 173 174 176 174 172 172 172 171 169 165 161 161 160 155 150 149 148 155 163 162 161 162 163 162 161 161 161 160 159 157 155 148 141 140 139 140 142 147 152 152 151 146 141 137 133 130 126 121 115 112 109 109 110 109 107 104 101 101 102 101 100 101 102 103 104 106 108 108 109 109 108 109 110 110 111 111 111 111 112 112 112 112 113 113 113 112 111 112 113 114 115 115 114 114 113 114 115 116 117 118 120 118 115 115 114 113 112 112 111 112 113 113 113 113 112 112 113 111 109 109 109 109 109 108 107 107 107 107 108 108 109 110 111 111 112 111 109 108 107 108 109 109 110 110 111 111 111 111 111 112 114 115 116 114 112 112 112 112 111 111 111 111 112 113 115 134 154 177 201 205 210 214 218
184 196 200 205 214 223 228 234 242 251 253 256 256 256 253 249 239 229 226 222 228 234 234 234 236 238 242 246 251 257 262 267 266 265 267 269 270 272 272 273 277 281 286 291 291 292 290 288 285 281 284 288 295 303 303 302 303 304 305 307 302 296 290 283 276 269 273 278 284 290 292 294 297 300 307 315 318 321 320 319 313 307 303 298 293 288 288 288 282 275 267 258 249 240 236 232 226 219 216 213 212 211 212 214 214 215 217 220 223 227 227 227 227 226 225 224 225 227 224 220 217 214 213 212 213 214 215 217 220 224 225 226 227 228 228 228 226 223 215 207 199 190 184 177 174 171 168 165 165 165 164 163 163 162 159 155 152 149 153 158 162 167 169 172 172 173 171 169 167 164 163 162 165 169 170 172 173 174 175 177 178 179 183 187 193 199 204 210 215 221 230 239 246 254 258 262 265 269 274 280 295 310 325 341 347 353 350 347 339 330 326 321 323 325 332 340 337 334 326 318 306 294 281 268 263 258 254 249 247 245 242 239 237 234 227 220 223 226 228 230 232 235 238 241 251 261 272 284 287 291 286 281 278 275 269 263 258 252 245 238 236 234 237 240 239 237 234 230 227 224 219 213 211 208 202 196 191 186 184 181 183 186 186 185 185 184 185 186 188 191 195 200 204 208 209 211 209 207 206 205 205 206 206 205 204 203 205 207 207 207 210 214 214 215 214 213 211 209 206 203 201 198 201 204 205 206 201 196 191 186 180 174 166 157 154 150 150 150 151 153 155 157 159 162 164 166 167 169 170 172 175 178 180 183 182 180 180 180 184 188 199 210 220 230 237 244 254 264 278 293 298 304 312 320 325 331 333 335 338 341 344 348 347 346 326 306 309 313 324 335 331 327 320 312 314 317 317 316 319 322 330 338 338 339 337 334 332 330 328 326 323 320 315 309 301 292 289 285 285 286 287 288 283 277 271 265 263 260 252 243 242 240 240 240 246 252 252 251 251 252 257 262 263 265 259 253 251 249 249 249 245 240 240 240 232 223 215 207 204 200 199 197 196 194 190 186 188 190 196 203 208 214 227 240 249 259 256 252 253 254 254 255 248 241 238 235 233 231 221 211 204 197 193 188 182 176 174 172 172 171 170 169 168 166 166 166 164 162 164 167 170 174 177 180 181 183 190 197 201 205 205 205 204 202 202 202 208 214 218 223 229 236 236 237 238 240 251 262 272 283 290 298 302 307 309 311 308 304 299 294 290 286 285 283 280 277 274 270 264 258 251 244 241 238 231 224 220 216 219 223 223 224 224 225 224 222 209 196 185 173 180 187 188 189 187 185 184 182 180 178 175 172 170 167 162 156 156 156 161 167 167 166 166 165 165 164 163 161 161 161 161 162 157 151 149 147 147 147 150 153 151 148 144 140 138 135 131 126 123 119 116 113 112 110 109 108 107 105 104 103 103 104 104 104 104 105 106 107 108 110 110 110 110 110 110 111 111 112 112 111 111 112 112 113 113 113 113 113 113 113 114 115 115 114 113 112 113 114 115 116 116 116 114 112 112 111 111 111 111 112 112 111 111 111 112 114 117 120 118 115 112 108 108 108 108 108 108 107 107 107 108 109 109 110 109 108 108 107 107 108 109 110 110 111 111 111 111 111 111 111 111 111 111 112 112 111 111 112 112 111 111 112 112 112 114 117 138 160 179 199 203 208 216 225
168 176 181 187 195 204 211 218 225 232 238 245 248 252 248 243 234 225 222 218 219 221 220 218 221 225 234 244 249 255 258 262 265 269 271 273 277 281 280 279 282 285 287 290 291 292 293 295 290 284 279 274 274 273 273 273 273 272 278 285 285 286 280 273 263 253 254 256 260 265 269 274 274 275 281 288 289 290 289 287 282 276 272 267 266 265 265 266 266 265 256 247 241 234 228 221 218 215 212 208 208 208 210 213 214 216 216 217 218 219 219 218 218 219 219 219 220 222 218 214 213 212 212 212 210 207 208 210 212 214 217 221 223 225 225 224 224 223 219 214 204 194 186 177 174 171 168 164 163 162 163 164 163 162 161 159 158 156 155 153 154 155 161 167 169 172 171 169 168 166 165 163 165 167 168 170 173 176 176 177 178 179 180 181 184 187 192 197 203 209 217 226 230 235 240 246 252 259 266 274 286 298 312 326 333 340 337 334 327 320 323 326 327 328 333 339 335 330 320 309 298 286 274 262 259 256 251 245 242 239 238 237 235 233 226 219 219 218 219 221 222 223 227 231 240 250 261 272 275 278 278 277 274 271 264 256 251 246 240 233 232 230 231 233 231 228 226 224 222 220 215 210 208 205 200 194 189 184 181 178 179 181 182 183 184 186 188 190 192 195 196 198 201 204 205 206 204 201 200 198 198 199 199 200 200 201 201 202 202 201 204 208 208 209 209 210 207 204 203 201 199 197 198 200 201 203 198 193 190 187 179 171 164 156 153 149 149 150 152 154 154 155 157 159 161 164 165 166 168 170 176 183 186 189 189 188 187 185 186 187 191 195 209 223 230 237 244 252 268 285 294 304 310 317 323 330 328 325 323 320 327 334 336 339 325 311 307 303 312 321 318 314 308 302 306 310 309 308 314 320 333 347 349 351 351 350 349 347 345 342 338 333 328 323 318 312 307 302 299 295 295 295 291 286 280 274 270 265 259 252 249 245 248 251 252 254 254 254 256 259 261 263 263 264 263 261 257 253 250 246 240 233 231 228 220 211 206 201 200 199 198 196 194 191 188 184 187 191 199 207 212 217 219 221 232 244 243 242 242 243 243 243 239 235 230 225 219 213 207 201 197 192 186 180 177 174 173 171 168 164 164 163 164 165 165 166 164 162 163 165 168 172 173 174 176 179 182 186 191 196 198 200 199 197 202 207 212 218 220 222 227 233 233 233 233 233 245 258 268 279 285 291 294 298 297 295 292 288 285 281 278 275 272 268 264 259 257 254 250 246 241 236 235 234 232 230 229 227 223 218 217 216 218 220 217 214 201 188 187 185 188 192 194 196 195 194 193 191 189 187 182 177 175 173 165 157 161 165 167 170 170 170 169 168 167 166 166 166 165 163 164 165 163 161 160 159 159 158 158 157 155 153 149 144 139 133 128 123 120 117 115 112 111 110 110 110 110 109 108 106 105 104 105 106 107 108 109 110 110 110 110 111 111 111 111 112 112 112 112 112 112 112 112 111 111 112 112 112 112 112 112 113 113 113 113 114 114 115 115 116 116 116 115 113 111 109 110 111 113 116 115 113 113 112 113 115 121 128 130 133 125 116 113 110 109 108 108 107 107 107 107 107 107 108 108 107 107 107 107 108 109 110 110 110 110 111 111 111 111 110 110 110 110 111 111 112 112 111 111 110 110 111 111 111 115 119 137 155 173 191 201 211 217 224
159 164 169 175 181 187 193 199 204 209 216 223 228 234 230 226 219 211 209 206 205 203 206 210 213 217 224 231 235 239 243 248 251 255 261 267 273 280 281 283 283 284 285 287 289 292 292 292 286 280 276 271 264 257 256 255 253 251 251 250 253 256 253 250 243 236 237 238 240 242 245 249 249 250 251 252 253 255 257 260 260 261 260 259 259 259 258 257 255 253 247 240 235 230 221 211 209 207 206 204 204 204 208 212 215 218 220 222 222 223 221 218 218 219 219 219 219 219 215 210 208 205 205 205 202 199 196 193 196 200 205 210 212 215 216 218 218 219 218 216 211 205 196 186 180 174 169 164 164 164 165 166 162 158 157 156 158 160 160 161 155 149 151 153 159 165 165 166 166 167 167 166 167 168 170 173 176 179 179 179 177 175 175 176 179 183 186 190 195 201 208 215 217 220 224 228 236 245 253 262 273 285 296 308 315 323 322 321 318 314 316 318 318 318 322 326 320 314 306 297 288 279 268 257 252 247 244 240 236 231 230 228 227 225 220 215 213 211 212 213 214 216 220 224 230 236 244 253 260 267 269 272 267 262 255 248 245 241 236 231 229 226 224 222 222 222 221 220 218 215 213 211 204 196 191 186 183 180 180 181 182 184 184 184 187 191 193 196 197 199 195 191 191 191 191 192 192 191 192 193 193 194 195 196 195 194 195 197 197 197 199 202 204 206 206 206 203 199 198 197 197 196 197 199 200 201 197 192 187 182 174 166 159 152 150 148 148 149 151 154 155 157 159 162 163 165 166 167 168 169 175 181 184 188 187 185 184 183 184 186 187 188 198 209 223 238 246 255 271 288 301 314 320 327 328 330 327 323 318 313 319 326 328 330 321 312 304 296 301 306 303 300 297 294 297 300 300 300 307 314 330 347 348 350 351 353 353 353 353 354 350 345 339 332 328 324 318 311 305 299 300 301 294 287 282 276 272 267 262 257 257 257 259 262 262 261 257 253 253 254 255 256 256 257 257 257 252 247 240 233 226 219 216 213 211 209 207 205 202 198 195 191 188 184 184 183 186 189 195 201 204 207 209 211 219 228 229 230 233 237 237 238 231 224 217 209 206 203 200 197 192 187 183 178 175 171 167 162 159 156 156 155 156 158 158 159 160 161 165 170 172 175 176 177 179 181 184 188 191 194 195 196 196 195 199 204 210 216 218 221 224 228 230 232 230 228 239 251 262 273 281 290 290 291 287 283 280 276 277 278 276 273 271 268 266 264 262 260 261 263 263 262 260 258 255 251 244 237 232 227 220 212 211 209 205 200 198 195 196 198 197 196 196 196 195 193 193 192 191 190 187 183 179 174 167 160 165 171 173 175 174 173 172 170 170 170 169 168 168 168 165 162 161 160 160 159 159 159 158 156 155 154 152 150 144 137 132 126 126 125 121 117 115 112 110 108 107 106 105 103 103 104 105 107 108 109 109 109 109 109 110 111 111 111 111 111 111 112 112 112 112 112 112 112 112 113 113 112 112 112 112 113 113 113 113 113 114 116 116 117 117 116 114 112 112 111 112 113 114 115 114 113 113 112 112 113 117 121 129 138 132 126 119 111 109 107 107 107 108 109 108 107 107 107 107 107 107 106 107 108 109 110 110 110 110 111 111 110 110 111 111 111 111 112 112 112 112 111 111 111 111 110 111 112 120 129 142 155 167 180 194 208 214 221
155 156 162 168 173 179 184 190 192 195 199 204 210 217 216 214 210 206 204 202 200 198 202 206 209 213 215 217 220 224 228 232 234 237 241 246 254 263 267 271 272 273 279 285 288 292 292 292 285 278 274 270 266 261 258 255 251 247 241 235 233 230 227 223 222 220 219 217 218 219 223 227 230 234 234 235 236 238 243 249 256 264 264 264 259 254 253 251 246 241 236 230 227 223 214 205 202 199 199 198 198 198 201 205 209 213 217 221 224 227 224 221 222 223 221 219 217 215 213 210 206 201 200 199 198 197 195 192 190 187 190 193 196 200 206 212 214 216 216 215 213 210 200 190 180 170 168 166 165 163 163 162 161 159 159 159 160 161 161 160 155 150 148 146 151 156 157 159 160 161 163 165 165 164 166 169 173 177 177 177 175 172 172 171 173 176 180 184 187 190 197 205 211 217 219 221 228 236 243 250 261 272 281 290 294 299 301 304 304 304 304 305 305 306 310 314 309 304 297 289 281 273 263 252 246 239 235 230 227 224 223 222 220 218 215 212 208 204 205 206 206 206 209 213 219 225 235 245 250 256 258 260 255 250 245 239 236 233 228 223 219 215 215 216 216 215 215 215 211 206 204 201 193 184 183 182 184 187 186 184 184 184 185 187 189 191 194 198 197 195 189 182 182 182 182 183 183 183 185 187 189 192 192 193 191 189 189 190 191 192 194 196 199 202 201 200 200 200 197 194 194 194 194 193 192 191 189 186 181 176 168 160 155 150 149 148 149 150 151 153 156 159 162 165 168 172 172 171 171 170 173 177 179 182 182 181 181 181 182 184 185 186 194 203 224 246 253 261 283 305 320 336 345 354 348 342 335 327 324 321 322 323 325 327 317 306 299 292 292 291 287 283 283 284 288 292 290 287 295 304 321 339 341 343 345 347 350 354 355 356 350 344 338 331 326 320 315 309 301 293 293 292 287 281 275 269 267 264 262 260 260 261 263 265 265 265 261 257 252 247 246 245 246 248 248 249 246 242 236 230 225 220 220 221 214 206 203 199 196 193 187 180 182 185 188 192 193 194 194 195 195 196 200 204 207 211 214 218 221 225 224 223 216 208 204 200 195 190 185 179 177 175 173 171 166 161 156 151 151 151 151 151 151 152 152 153 157 162 168 174 178 182 182 183 184 185 186 188 191 194 194 193 194 196 199 202 205 208 211 215 218 222 224 227 228 229 236 243 254 265 274 284 284 284 280 275 274 272 275 279 277 275 270 264 265 266 268 271 274 277 278 279 276 273 267 261 250 239 233 227 225 222 214 205 202 199 202 206 211 217 212 206 201 195 194 193 192 191 189 187 184 180 176 171 170 168 171 174 174 175 174 173 173 172 172 171 170 168 167 165 162 159 157 154 153 152 152 151 151 150 148 145 145 146 144 142 138 134 134 133 130 126 120 114 112 109 109 108 107 106 106 107 107 106 107 109 109 108 109 110 110 110 110 111 111 112 112 113 113 112 112 111 111 111 111 111 111 112 112 113 113 113 113 112 113 114 114 115 115 115 115 116 115 113 112 111 111 112 112 113 113 113 113 112 111 110 112 114 122 131 128 124 118 111 109 107 107 107 107 107 107 106 107 108 109 110 110 110 110 109 109 110 110 110 110 110 110 110 110 111 111 110 110 111 111 112 111 110 110 111 111 110 112 114 125 136 148 161 169 177 187 198 205 213
151 152 156 160 167 174 179 185 188 192 194 197 199 201 201 201 202 204 204 203 199 194 197 200 202 205 207 210 213 216 217 218 218 218 222 226 234 243 247 251 255 259 266 274 280 287 288 290 286 281 277 272 271 269 267 264 258 251 242 233 228 222 217 211 210 208 207 206 207 208 214 221 224 228 229 230 229 228 231 235 247 260 259 257 248 239 237 234 231 227 222 216 214 212 208 203 201 199 196 192 192 193 193 192 196 200 208 217 220 224 223 222 222 223 222 220 216 212 209 206 201 195 195 196 196 197 196 194 192 190 187 183 185 188 193 199 205 211 213 215 213 211 203 194 183 171 170 169 167 165 164 162 162 161 159 157 157 156 157 159 157 155 151 146 147 149 152 155 155 156 157 158 159 160 162 164 166 169 171 174 171 167 165 162 163 165 167 170 173 176 185 194 202 211 216 221 226 231 235 239 249 260 266 272 275 279 282 285 287 290 290 290 291 292 294 297 294 290 284 278 270 262 252 242 236 230 227 223 220 217 216 214 213 211 209 206 202 197 197 197 197 196 199 202 210 218 230 243 247 251 251 250 244 237 233 229 226 223 218 212 208 204 205 206 207 209 208 206 199 191 187 183 181 179 179 179 179 179 178 177 177 176 177 178 182 186 188 191 186 181 178 174 175 176 177 179 178 176 176 176 180 184 187 190 188 185 183 181 183 185 189 193 195 197 197 197 198 199 198 197 195 193 190 187 185 183 182 180 175 169 158 147 148 149 151 154 154 154 156 158 160 163 167 172 174 176 176 176 176 176 177 178 179 180 180 181 181 181 183 185 185 184 190 197 217 238 252 266 293 321 340 359 367 376 371 366 358 349 348 347 336 325 324 323 313 302 296 290 287 284 280 275 274 273 276 280 276 272 282 293 309 326 329 333 336 339 344 350 353 357 350 343 336 328 322 316 309 301 293 284 282 280 277 273 268 262 262 261 261 262 261 260 260 259 262 265 262 258 253 247 242 236 236 237 239 242 240 237 234 231 230 229 225 221 210 199 196 192 189 186 183 179 185 191 193 196 196 195 194 193 194 195 195 196 196 196 198 200 200 199 199 199 197 194 189 184 177 169 165 160 160 161 160 158 155 151 150 148 148 147 147 148 149 150 151 153 157 161 166 172 176 181 183 185 185 186 186 185 186 188 191 194 195 197 198 200 202 205 208 212 216 220 224 228 230 232 233 235 245 255 266 278 281 284 279 273 272 271 274 277 277 276 270 263 263 264 270 276 279 282 282 283 281 278 270 261 252 243 234 225 221 217 212 207 209 212 217 223 223 223 223 223 215 206 200 194 193 192 190 188 185 181 178 175 178 181 180 178 177 176 176 175 175 174 172 170 168 166 163 159 157 155 152 148 145 141 140 138 138 137 137 138 136 133 133 134 134 135 135 135 132 128 124 119 115 110 110 109 107 104 106 108 107 105 107 109 109 110 110 110 110 110 110 110 111 112 112 113 113 112 112 111 111 111 111 112 112 112 112 112 112 111 111 112 112 112 113 114 114 114 114 115 115 114 114 115 115 114 114 114 114 114 114 115 114 113 113 112 114 116 116 117 115 112 111 110 109 107 107 108 108 108 108 108 109 110 111 112 111 109 109 109 109 110 110 110 110 110 110 111 111 111 111 111 111 110 110 110 110 110 110 111 115 120 130 141 153 166 170 174 179 185 195 205
144 145 150 156 161 166 172 178 181 184 187 191 190 189 189 188 191 194 195 197 193 188 187 186 190 195 197 199 202 205 206 208 209 210 213 217 221 226 234 242 249 257 262 267 272 277 282 287 283 279 275 271 269 266 264 262 258 253 244 235 231 226 221 215 212 208 207 206 206 205 210 215 219 223 225 227 227 226 229 232 241 250 250 249 242 234 230 226 219 212 208 203 200 196 195 193 192 191 190 188 188 188 188 189 191 194 197 201 205 209 212 216 218 221 220 219 216 213 210 207 203 199 198 196 198 200 199 197 193 189 184 178 178 178 181 185 188 191 198 205 205 205 201 197 188 178 175 171 171 170 168 165 163 161 158 155 155 154 155 157 158 159 159 158 153 147 149 151 151 151 151 151 152 153 155 158 161 165 166 167 165 163 161 159 159 158 160 162 164 167 175 184 192 200 206 213 217 221 225 230 238 247 253 259 261 263 264 266 268 270 270 269 269 270 274 278 276 273 269 265 257 248 238 228 224 220 218 215 212 209 209 208 207 205 200 194 193 192 192 191 191 192 195 198 207 216 225 235 238 241 240 238 232 225 220 215 214 212 207 201 202 203 203 204 204 203 198 192 186 179 178 177 177 178 178 177 176 174 174 173 173 172 172 172 174 177 176 175 172 169 169 169 169 169 168 167 165 163 163 163 167 172 177 182 181 179 174 169 173 178 182 187 188 190 191 192 194 196 196 195 192 189 187 185 184 182 179 176 168 159 156 153 157 161 161 161 160 159 161 163 166 169 172 175 176 177 177 178 179 180 180 181 182 184 184 185 184 183 181 179 181 184 190 197 213 229 249 269 298 328 344 360 367 375 375 376 372 368 369 370 356 342 331 320 310 300 291 282 279 275 275 275 271 266 268 270 265 259 272 285 300 315 317 320 325 330 340 350 356 362 354 345 336 326 320 314 305 296 287 278 274 269 266 263 257 250 251 253 254 255 252 249 250 252 254 256 250 244 242 240 240 241 239 236 236 237 237 238 237 235 229 223 215 207 202 196 194 191 188 184 184 183 185 188 189 191 191 192 192 193 194 195 193 191 188 185 183 181 177 173 172 171 171 170 164 158 152 146 146 146 149 152 152 151 150 149 147 145 145 145 147 149 150 152 154 156 159 162 165 168 172 176 178 180 182 184 184 185 187 189 191 194 195 197 198 199 201 203 207 211 215 220 223 227 228 229 229 230 237 245 255 265 271 278 276 274 272 270 272 274 274 273 269 265 264 262 269 277 281 285 286 287 284 280 272 264 254 244 238 231 226 221 222 224 226 228 229 230 229 228 230 233 230 227 214 201 197 192 190 188 186 184 186 188 187 186 185 183 181 179 178 177 175 172 168 164 162 159 157 155 152 148 147 146 147 148 147 145 141 136 133 129 128 126 125 123 124 126 126 127 124 121 121 120 116 111 110 108 108 107 107 108 108 107 107 108 108 109 109 108 109 110 110 111 111 111 111 112 112 112 112 111 111 112 112 111 111 112 112 112 112 113 113 112 112 112 113 114 114 114 114 114 115 116 116 115 114 113 113 114 113 112 112 112 111 110 110 111 111 111 112 114 113 112 111 109 108 107 107 108 108 108 108 107 108 110 110 110 109 108 108 109 109 110 110 110 110 111 111 110 110 110 110 110 110 109 109 109 109 110 111 113 118 124 134 145 156 167 172 178 179 181 190 199
136 137 141 146 152 158 164 170 171 173 173 174 175 176 176 176 177 179 181 184 182 180 177 174 176 179 183 187 190 193 195 198 202 206 210 215 222 229 238 248 255 263 266 270 276 283 289 295 288 280 274 267 263 258 256 253 251 249 241 233 230 227 223 219 217 215 214 212 209 206 209 212 214 217 221 225 227 229 231 233 237 241 241 240 233 226 223 220 215 209 203 197 193 189 187 184 181 178 178 177 177 177 176 175 178 181 183 185 188 192 200 209 214 219 218 217 214 211 210 209 204 198 197 196 196 197 195 193 191 188 183 177 176 174 172 169 167 165 174 184 189 194 191 188 184 180 177 174 172 169 166 163 162 161 159 156 155 154 154 154 154 154 153 151 147 143 144 145 146 148 148 147 149 151 152 154 156 159 160 162 160 157 155 152 153 154 154 153 158 163 171 180 186 193 198 204 206 209 214 219 224 229 235 241 242 244 245 246 248 251 251 251 252 254 257 260 259 257 254 250 242 234 225 215 210 205 204 202 201 199 200 202 202 202 196 190 191 192 193 195 193 191 192 194 200 206 214 223 226 230 227 223 218 212 206 200 198 195 195 196 197 198 198 198 195 192 187 181 177 173 174 176 176 176 176 175 174 173 172 170 168 166 165 164 164 165 165 164 164 164 164 163 161 159 157 155 154 152 154 156 159 162 164 166 165 164 163 162 167 173 174 176 177 179 183 187 190 194 191 188 185 181 180 179 178 176 168 159 151 142 154 166 167 169 169 168 167 166 168 170 172 174 175 177 178 180 180 181 181 181 181 180 182 184 185 186 185 184 184 183 183 183 185 188 202 216 242 268 298 329 342 355 362 369 371 373 372 370 370 371 361 350 336 322 308 293 282 271 269 266 274 282 281 279 274 269 261 252 264 276 290 305 306 307 316 326 339 352 357 362 357 351 340 328 319 309 300 291 284 277 273 268 262 255 248 241 241 240 242 245 243 241 243 246 246 246 239 232 232 233 234 236 233 230 231 232 234 237 233 228 223 217 212 206 200 193 190 187 185 183 181 178 182 186 187 188 188 189 191 193 193 193 189 185 177 169 165 160 157 154 151 148 147 145 144 143 142 141 141 140 141 142 143 145 144 143 143 142 143 145 148 151 155 160 166 172 172 171 171 170 171 173 176 179 181 183 183 184 186 189 191 193 196 199 201 203 202 201 204 208 211 215 219 223 225 227 227 228 234 240 246 252 260 268 270 272 270 267 270 273 272 271 267 262 260 258 266 275 278 282 282 283 279 275 270 265 253 241 234 226 228 230 240 251 250 248 244 239 236 232 233 234 234 234 224 214 205 195 191 187 190 194 196 198 198 198 195 191 188 185 183 180 178 175 169 163 161 159 159 160 158 156 156 155 154 152 148 144 141 137 134 131 129 127 126 125 123 121 121 121 119 116 115 113 112 110 109 107 106 105 105 104 104 105 106 107 108 109 109 109 109 110 110 110 110 111 112 114 114 115 114 113 113 112 112 111 112 113 113 113 113 114 114 113 113 113 113 113 113 113 113 114 114 114 114 113 113 112 112 113 112 111 110 109 109 110 110 110 110 110 110 110 109 108 108 107 107 107 107 107 107 107 107 107 108 109 109 108 108 107 108 110 110 109 109 110 110 111 111 110 110 110 110 111 110 108 108 108 109 111 113 115 120 125 135 145 153 161 167 173 174 176 182 188
